1568
261.033400 69.646980 5.877475
261.002400 67.842450 4.386228
261.087700 69.298710 5.686305
260.789000 67.951930 4.580262
260.889100 69.682390 6.045059
260.051100 64.501020 1.908649
260.757600 69.569760 6.169272
260.952400 69.265460 5.934612
260.740300 67.455150 4.444077
260.298300 63.864810 1.471236
259.887600 64.531650 2.059213
260.770300 67.109600 4.185304
260.802400 69.299500 6.091593
257.126200 60.721400 -0.922247
258.644700 61.778780 -0.075616
260.326100 64.216360 1.886640
260.946700 68.879200 5.843573
259.700200 63.019190 0.984823
260.877600 69.033790 5.994320
260.623500 66.240980 3.736457
257.795100 61.098040 -0.318141
260.823600 68.823580 6.032462
260.903000 68.618040 5.923661
260.549500 66.283660 3.983873
258.842100 61.841570 0.376137
260.594000 65.377990 3.277468
259.708000 64.005900 2.218741
260.878200 68.185760 5.676560
257.840200 61.021180 -0.126811
260.848000 67.984250 5.581123
260.101300 63.517080 1.934154
258.729600 61.695310 0.487119
260.560500 65.871210 3.979813
257.962700 61.048720 0.074869
260.788900 67.443270 5.325486
259.101000 62.087620 0.922519
259.974200 63.296230 1.966455
260.673200 64.965710 3.380233
259.933300 64.076290 2.730319
257.899500 60.961110 0.281743
259.769400 63.020260 1.930856
259.794400 63.191700 2.120660
260.791200 67.004960 5.280985
258.390300 61.365540 0.671014
260.668100 65.156470 3.885451
260.689700 65.522730 4.232675
260.739500 66.529790 5.080431
260.734000 66.820270 5.333959
260.643800 65.287110 4.131784
260.083000 64.017010 3.132912
260.515200 64.775300 3.795157
260.664700 66.229400 5.030462
260.586600 65.078130 4.072728
260.649100 66.375620 5.184418
260.547900 65.231730 4.331286
260.555300 66.410540 5.375823
257.725600 60.854850 0.880756
260.514100 66.159520 5.225514
260.436000 65.500910 4.790545
258.560400 62.017830 1.963220
260.432800 65.965970 5.188061
260.346400 65.301940 4.720886
260.257900 66.220930 5.538681
259.598700 63.532230 3.388166
260.247100 65.057450 4.641959
260.114500 65.492270 5.288393
260.090300 65.125840 5.033978
258.115200 61.203870 1.873515
260.077900 64.673970 4.748463
258.130100 61.282800 2.379808
259.752100 63.854890 4.645396
258.002800 61.252000 2.624714
259.028800 62.417740 3.632071
256.743600 61.575020 3.946557
256.451100 61.423290 4.182666
257.388400 62.115030 5.235642
257.291500 62.009840 5.385075
257.185800 61.932180 5.540147
257.039000 61.829340 5.629572
260.483900 64.752790 0.164518
260.295700 64.713100 0.066787
259.799100 64.469080 -0.231487
260.372900 65.139470 -0.110901
260.190100 65.068980 -0.247653
260.581900 65.540310 -0.139760
260.045200 64.412970 -1.272051
260.735000 66.121010 -0.084439
260.654700 66.204180 -0.430972
259.569100 64.230590 -2.290662
260.136900 65.090240 -1.761857
259.318300 64.262020 -2.566926
258.765500 64.305340 -2.635911
259.174600 64.420590 -2.670014
259.395000 64.424350 -2.663512
260.454000 65.425370 -1.799741
259.580100 64.522270 -2.648728
261.338400 68.168580 0.384732
260.304400 65.561960 -1.892645
260.702800 66.018950 -1.669568
258.870700 64.657430 -2.907274
259.769600 64.873150 -2.742451
261.560900 68.539660 0.329643
261.289200 67.194420 -0.882192
259.195900 64.912690 -3.042854
258.732400 64.449120 -3.648370
259.349600 65.075990 -3.134602
259.000200 65.064920 -3.194159
260.854100 67.233530 -1.460537
258.643000 64.534410 -3.813303
258.837100 64.643900 -3.721903
257.260600 64.444940 -4.023389
259.039000 65.289510 -3.279685
261.433300 69.069450 -0.085410
259.369000 65.391120 -3.307233
256.868300 64.585800 -4.055994
258.743200 64.771120 -3.928394
261.863900 69.715100 0.338903
258.445700 64.701560 -4.121206
260.835500 67.659060 -1.544860
257.598700 64.663040 -4.214804
260.945500 67.836080 -1.516219
257.805900 64.745720 -4.281820
257.448300 64.793360 -4.277118
258.502900 64.898950 -4.251362
259.098600 65.807400 -3.477083
257.654000 64.864590 -4.351948
257.298100 64.928260 -4.331231
258.191100 64.877910 -4.382116
259.661700 66.031090 -3.376789
261.438600 69.497550 -0.387730
256.841400 65.020250 -4.296914
259.943100 66.299890 -3.219567
257.498400 64.997730 -4.407465
260.277200 66.715200 -2.916356
259.451300 66.094360 -3.460003
257.007800 65.108480 -4.365546
256.566400 64.992600 -4.490262
257.797300 65.008980 -4.469129
261.106600 68.309150 -1.592206
256.693300 65.146460 -4.385636
259.576600 66.286810 -3.385937
260.091200 66.655040 -3.080107
259.616900 66.479090 -3.338502
258.940200 65.448230 -4.238953
260.149100 66.853470 -3.029656
261.143200 69.715610 -0.585403
261.004200 68.442440 -1.750103
260.227700 67.044500 -2.968410
261.290000 69.860380 -0.588980
261.684000 70.068400 -0.427574
258.336700 65.248640 -4.627232
259.301900 65.886760 -4.077703
256.715000 65.414390 -4.511924
256.941300 65.440350 -4.506195
261.298300 68.663110 -1.703730
258.576900 65.407620 -4.561146
257.515700 65.432150 -4.651964
259.561600 66.891830 -3.376854
259.876100 67.138570 -3.166249
256.605400 64.321350 -5.630603
261.128900 70.006050 -0.712482
258.434400 65.430610 -4.700985
260.920100 68.627130 -1.916923
256.631000 65.523630 -4.661033
260.825400 68.065620 -2.513803
259.726800 67.270910 -3.231766
258.803200 65.847920 -4.511954
261.572500 70.491470 -0.503947
260.061800 67.618170 -3.055634
258.081300 65.522020 -4.897631
256.767200 65.832640 -4.726626
261.115600 68.994020 -2.018637
258.221900 65.661480 -4.959418
259.207200 66.314620 -4.403663
256.921100 66.002290 -4.767172
260.008300 67.993480 -3.034225
260.455400 68.117750 -2.932694
255.863800 64.485240 -6.136728
259.753700 67.010400 -3.926046
261.291700 70.843120 -0.605867
259.007300 66.363640 -4.531288
260.174800 68.121030 -3.014220
256.812300 65.559700 -5.273321
259.190700 66.541510 -4.476017
259.956800 68.197620 -3.063218
258.421600 66.019810 -4.989520
261.310200 71.388650 -0.333644
256.260200 64.725730 -6.143895
255.561900 64.686980 -6.241825
259.005200 66.589360 -4.585634
258.545000 66.204420 -4.931462
260.149900 68.364640 -3.055546
256.645500 66.293290 -4.879954
259.945200 67.691280 -3.645998
255.345000 64.772340 -6.227827
259.783100 67.147250 -4.187677
256.911200 66.532420 -4.750976
256.108500 64.835100 -6.303831
254.949700 64.905760 -6.299238
255.453900 64.845520 -6.392695
260.179000 68.602900 -3.117069
258.546300 66.518090 -4.989705
256.834300 66.662290 -4.902058
255.650500 64.876270 -6.497379
258.363400 66.484770 -5.102023
254.587000 64.875470 -6.539827
259.874400 68.662300 -3.224531
260.055800 67.873280 -3.922142
259.455300 67.191620 -4.560165
254.822000 65.065720 -6.478708
256.926700 66.840630 -4.930028
260.862400 69.608930 -2.549439
259.035700 67.110290 -4.726432
258.393200 66.710800 -5.103557
255.383500 65.041680 -6.605902
254.634100 65.120640 -6.550528
255.594900 65.045790 -6.631611
259.718700 67.501770 -4.477904
258.205000 66.768930 -5.174170
254.989200 65.191050 -6.610498
256.224100 65.374090 -6.475173
254.335900 65.015150 -6.833168
254.372400 65.180430 -6.721971
259.272600 67.461740 -4.737739
260.806600 69.415260 -3.035480
254.750000 65.266010 -6.680914
255.511400 65.213660 -6.762254
256.930100 67.315440 -4.991481
259.071100 67.521890 -4.826158
254.526500 65.332270 -6.762738
255.325000 65.269630 -6.829473
256.838500 67.521210 -4.897090
261.306000 70.826730 -2.024080
254.201400 64.997150 -7.132245
259.351900 67.662130 -4.796478
254.315000 65.385730 -6.880968
254.669000 65.421620 -6.876168
256.162900 65.758710 -6.580767
260.830500 72.910060 -0.358922
259.162400 67.723020 -4.863290
259.888900 68.135540 -4.525314
254.133900 65.336690 -7.003894
255.986600 65.676400 -6.702533
254.080900 65.194740 -7.138880
259.463000 67.848440 -4.803824
255.458900 65.451340 -6.918205
255.223000 65.420720 -6.955741
258.207300 67.417340 -5.207834
256.861000 67.709270 -4.967866
256.439400 66.395410 -6.135128
258.810300 67.748370 -4.988005
258.997400 67.825880 -4.930839
259.594400 68.034540 -4.782553
257.926200 67.520390 -5.247436
259.260700 67.906370 -4.906238
258.310200 67.630380 -5.190751
253.896500 64.878120 -7.658314
255.323600 65.591380 -7.033709
256.564500 66.598380 -6.168849
260.659300 70.443390 -2.821983
258.417200 67.792890 -5.143722
253.928900 65.337170 -7.338979
259.088900 68.038450 -4.980960
254.003200 65.619340 -7.121629
256.734400 68.039440 -5.060950
253.823700 65.582130 -7.236948
259.700200 68.367760 -4.785933
260.709900 70.675430 -2.790898
258.443100 68.004370 -5.123070
256.660300 66.781250 -6.197799
256.397100 66.625430 -6.334891
259.237500 68.193270 -4.976527
259.929700 69.598290 -3.806845
260.516400 70.632420 -2.936831
253.789000 65.444700 -7.492514
260.870800 71.172130 -2.548473
256.545700 66.783730 -6.381846
258.093100 68.182360 -5.175621
253.755400 65.322820 -7.686273
255.375200 65.932640 -7.146704
258.743600 68.313080 -5.064993
256.262600 66.737940 -6.496819
259.205000 68.403850 -5.037902
256.688200 66.938720 -6.334414
260.087200 69.780070 -3.856580
258.885700 68.452920 -5.087181
254.164300 65.836310 -7.404714
257.171800 68.592680 -5.006743
258.176500 68.433200 -5.140301
255.439000 66.130920 -7.162647
253.598500 65.778390 -7.486821
259.321100 68.605120 -5.059623
254.663400 65.879930 -7.470057
256.912800 67.684280 -5.895282
260.514500 70.193020 -3.708729
260.604700 71.519730 -2.562992
254.858700 65.940130 -7.447110
260.030700 69.934330 -3.975029
257.214000 68.790860 -5.000303
253.759000 65.959680 -7.544547
253.504300 65.430350 -8.023252
253.473700 65.767840 -7.739086
253.508400 65.929840 -7.598483
255.305800 66.248260 -7.323372
260.004600 69.214040 -4.728245
256.902600 68.913770 -5.012488
255.006800 66.114200 -7.487652
259.413500 68.860750 -5.112494
254.722000 66.080370 -7.601400
256.081600 66.982080 -6.832418
254.111800 66.049680 -7.655701
260.688200 72.370430 -2.147994
253.413500 65.632860 -8.037261
255.150200 66.274050 -7.472814
258.763500 68.878700 -5.195151
253.361900 65.942350 -7.786531
254.313800 66.090150 -7.708570
260.817500 72.788100 -1.882473
256.933000 69.175870 -5.045380
254.900800 66.232760 -7.625964
256.311100 67.125630 -6.859764
259.750800 70.236730 -4.192005
260.006200 69.668250 -4.687342
255.932300 67.093870 -6.950358
254.622500 66.205520 -7.736912
255.430300 66.637130 -7.376884
260.198300 70.329470 -4.152509
257.053400 69.341830 -5.052745
259.939700 70.321370 -4.195625
258.726500 69.105340 -5.271115
256.132900 67.169900 -6.971583
255.571400 66.829230 -7.274000
253.862900 66.235320 -7.834391
253.249500 65.903860 -8.139028
254.445000 66.250010 -7.842130
257.208100 69.470450 -5.052938
259.615900 69.359040 -5.149652
254.753300 66.355060 -7.790287
256.920300 69.447750 -5.181881
254.247400 66.306070 -7.930148
258.791700 69.276120 -5.356493
253.173900 65.887160 -8.336479
256.230500 67.361260 -7.039126
259.819100 70.516890 -4.305252
255.481900 66.959310 -7.427497
259.009200 69.331640 -5.370137
253.731000 66.378280 -7.971689
253.160000 66.329610 -8.033378
258.471000 69.414120 -5.331066
259.551700 69.568410 -5.188045
256.042200 67.421380 -7.101939
256.378200 67.541290 -7.053258
259.160500 69.485220 -5.417695
254.756500 66.630270 -7.957372
258.858100 69.521170 -5.442583
256.943400 69.754120 -5.284923
258.134300 69.704500 -5.322284
255.365900 67.082230 -7.615208
259.673700 70.730680 -4.449678
253.033600 66.465600 -8.224680
258.536200 69.657340 -5.431164
257.724700 69.884960 -5.273652
254.593400 66.663430 -8.088805
259.044600 69.650600 -5.471956
254.899200 66.837950 -7.951284
256.995700 69.160950 -5.925178
259.619800 70.077670 -5.115640
260.054800 70.896010 -4.412929
260.334900 71.507160 -3.918522
258.719700 69.749290 -5.499188
258.911900 69.809240 -5.513236
259.332000 69.992660 -5.365655
259.129400 69.894300 -5.456246
255.529900 67.522780 -7.539837
257.548000 70.096260 -5.306488
259.915800 71.026490 -4.487043
257.116000 69.234450 -6.067837
259.305200 70.836450 -4.665710
257.802400 70.065710 -5.345818
258.164700 70.023130 -5.442307
254.633400 66.888270 -8.184129
256.885900 68.237980 -7.026464
258.399300 70.021820 -5.516407
257.232900 70.309300 -5.315183
259.784500 71.171020 -4.565930
255.297900 67.449940 -7.823421
254.328600 66.838900 -8.367123
257.700900 70.256340 -5.399040
257.003600 70.309500 -5.358871
256.858100 70.199710 -5.458649
257.446800 70.309530 -5.364285
258.002300 70.199240 -5.463977
257.062200 69.436570 -6.137233
260.019100 72.057480 -3.876628
259.993700 71.908400 -4.044015
258.235000 70.204900 -5.553477
259.031800 70.226740 -5.534718
259.977100 72.443300 -3.640214
254.133400 66.883880 -8.502345
259.664400 71.322270 -4.619411
256.907200 68.491820 -7.090770
255.790800 68.119350 -7.425654
254.970500 67.369550 -8.089449
257.005600 68.683590 -6.953909
256.738200 68.385530 -7.217555
259.917600 71.834040 -4.216724
257.579500 70.445780 -5.459673
257.309200 70.497450 -5.421531
257.861400 70.410480 -5.509792
259.797400 71.730490 -4.393295
254.281500 67.048120 -8.514697
259.533700 71.499570 -4.653067
256.723500 70.450070 -5.616031
258.850900 70.453360 -5.597937
255.364400 67.834850 -7.899555
256.378100 68.436930 -7.415446
256.826900 68.642190 -7.235229
257.196600 70.697340 -5.467954
259.612900 72.428870 -3.967783
255.195100 67.784790 -8.031482
258.694900 71.355860 -4.920182
256.139900 68.434070 -7.475550
259.755400 72.864280 -3.629032
254.813500 67.534420 -8.285533
256.803000 70.674550 -5.565343
256.641300 68.629220 -7.355922
259.010100 71.558300 -4.804018
259.704600 73.193480 -3.454879
259.451900 71.993320 -4.497539
254.529300 67.448690 -8.498743
258.398100 71.451720 -5.049799
255.983800 68.618620 -7.524212
256.845000 70.895940 -5.556880
255.053500 67.895830 -8.169418
256.695500 70.819240 -5.670224
259.266600 72.108930 -4.536089
255.662900 68.580910 -7.669988
257.321700 71.121200 -5.485226
258.490400 71.725480 -5.038843
256.916500 69.200220 -7.245562
256.888600 70.252120 -6.402387
257.140000 71.299740 -5.515494
255.626700 68.794970 -7.734758
257.635800 71.622100 -5.317522
256.783600 69.333530 -7.354067
258.125700 71.850690 -5.169453
256.938000 69.489600 -7.228424
255.719000 68.988830 -7.673302
256.608800 69.273460 -7.469614
258.525100 72.122350 -5.062785
256.283800 69.215400 -7.597012
258.622600 73.529070 -3.865755
256.076500 69.217470 -7.634698
255.462100 68.879190 -7.934733
257.524700 71.839650 -5.362722
256.686800 71.443530 -5.717321
256.686200 70.644930 -6.436025
255.718200 69.196340 -7.706677
257.089800 70.208350 -6.828754
257.227200 71.853030 -5.463031
257.671000 72.006580 -5.332472
256.605100 69.567700 -7.479073
256.241600 69.419440 -7.639597
258.384900 72.278820 -5.150264
257.367500 72.000750 -5.423007
258.576900 72.404100 -5.084848
255.995700 69.425150 -7.685496
256.670300 71.706730 -5.713235
255.613400 69.373280 -7.775113
255.795500 69.462270 -7.724934
256.392800 69.628130 -7.593495
258.382600 73.454510 -4.267139
256.405500 71.499610 -5.985981
258.376500 73.275280 -4.473543
257.652000 72.333330 -5.319911
258.316000 72.488470 -5.207659
255.918300 69.679950 -7.733633
257.082200 72.357010 -5.469523
255.534700 69.655500 -7.866624
257.258500 72.477830 -5.422315
256.562200 72.164640 -5.726161
257.641000 72.571960 -5.366051
256.052300 69.844950 -7.743397
256.691100 70.233200 -7.432090
258.391700 72.762800 -5.278318
257.415900 72.651570 -5.439456
256.923100 72.594520 -5.538521
255.419400 69.833140 -7.953275
257.154700 72.666630 -5.508146
257.590200 72.781200 -5.456829
256.259300 72.237060 -5.970011
256.124300 70.255350 -7.740701
256.387000 70.411960 -7.625817
255.919400 70.269330 -7.806577
257.047600 72.820710 -5.592614
256.854700 72.841090 -5.663272
255.730100 70.336410 -7.855577
256.181700 72.486830 -6.002157
257.892500 73.037070 -5.520820
258.293900 73.378840 -5.229260
256.016000 70.466580 -7.791714
257.228900 73.022190 -5.613915
256.387100 72.863310 -5.823848
256.944700 73.037370 -5.693418
256.579400 70.965000 -7.503706
255.761400 70.554090 -7.870116
256.428300 70.832420 -7.623323
258.198400 73.331970 -5.490957
256.745500 73.036720 -5.763103
256.194400 72.911990 -5.973270
256.561300 73.099180 -5.836507
255.996600 72.637300 -6.267069
257.935000 73.416290 -5.629371
255.463200 70.587800 -8.099409
255.287800 70.486330 -8.236398
257.715000 73.438380 -5.671434
255.776300 70.877600 -7.954542
255.999900 71.881890 -7.196714
257.346900 73.514650 -5.787500
256.425000 73.351490 -5.983875
255.350600 70.725400 -8.266496
257.582200 73.619880 -5.760291
256.006100 71.227740 -7.886655
256.227300 73.347930 -6.082762
255.653400 71.052240 -8.075595
256.978700 73.569480 -5.888599
256.044500 73.241380 -6.189759
256.597300 73.494630 -5.977441
257.167600 73.634280 -5.861244
255.227300 70.787630 -8.433876
257.069800 73.803440 -5.941096
256.018500 73.463370 -6.266920
255.721200 72.569730 -7.079053
256.864500 73.798020 -6.009185
256.656800 73.810900 -6.066062
255.477400 71.363200 -8.262323
256.263600 73.807010 -6.215231
255.994700 73.881790 -6.404658
255.541900 71.961070 -8.099416
255.481800 72.200480 -8.045176
255.415500 72.076400 -8.228140
255.260400 72.481330 -8.328153
254.908300 71.542490 -9.236363
253.334100 54.789430 3.678058
253.213000 54.792960 3.452014
253.046700 54.685660 3.224819
253.430500 55.233290 3.768998
253.289300 55.013950 3.511091
253.092500 54.903130 3.265291
253.369600 55.224630 3.576372
253.179700 55.131030 3.336585
252.845300 54.825470 2.929298
252.762500 54.703460 2.765126
253.032500 55.149910 3.169742
253.278000 55.336840 3.422057
253.498900 55.625480 3.685875
253.409100 55.514630 3.538312
253.139200 55.354370 3.264219
252.824600 55.057610 2.870154
252.729700 54.809710 2.570431
253.251200 55.532800 3.343872
252.986500 55.372300 3.078578
253.086200 55.551780 3.141019
253.310900 55.725700 3.364712
252.870600 55.377170 2.872933
252.894200 54.591880 2.200449
253.498300 56.003360 3.569707
253.166600 55.740510 3.173466
252.935200 55.564590 2.922566
253.383400 55.930980 3.404368
253.020900 55.754260 2.972614
253.237000 55.942940 3.188121
253.695000 54.483680 2.140465
253.527600 56.380490 3.526343
252.910400 55.652960 2.662456
253.100300 55.954180 2.985283
253.345000 56.174900 3.239035
252.972700 55.846500 2.716501
253.444600 56.375170 3.316703
253.581500 56.677230 3.581495
253.041400 56.024830 2.780333
253.133300 56.185420 2.880153
253.327300 56.381580 3.123058
254.260100 54.410540 2.013816
253.833100 55.143640 2.307073
253.217000 56.385430 2.923220
254.458400 54.484480 1.990989
254.251300 54.656770 2.025694
253.624700 57.152380 3.572050
253.460500 56.764000 3.182742
253.206600 55.924090 2.378693
253.865300 55.551140 2.382346
254.445500 54.712990 1.997837
253.292300 56.669660 2.932571
252.848200 58.121900 3.837024
253.608200 57.359330 3.432478
254.805700 54.186980 1.477395
253.540200 57.256390 3.253934
253.458300 57.133000 3.088162
254.111300 55.951990 2.461101
254.704400 54.088050 1.280841
253.630500 57.572290 3.455728
254.553100 55.094950 1.932914
253.318500 57.001960 2.819957
253.555600 57.478350 3.273192
254.605400 54.089620 1.085809
253.470900 57.348510 3.073410
254.533100 53.967730 0.925039
253.600000 57.732370 3.324898
253.435400 58.227470 3.588388
252.876800 59.149060 4.026797
253.506400 57.625080 3.121538
255.000300 54.716720 1.557471
254.737000 54.408500 1.182214
253.407100 57.471770 2.922518
253.646800 57.934040 3.384747
254.671300 54.295220 1.021867
254.634100 54.153380 0.870085
253.517700 57.829110 3.124175
254.900600 54.713520 1.325430
254.803200 54.609840 1.174872
253.431500 57.725030 2.931620
253.580200 58.034040 3.201034
253.366400 57.609610 2.726065
255.010600 54.890930 1.368082
254.989300 55.395710 1.722842
253.433400 57.930600 2.928653
253.495500 58.130470 3.033303
253.385200 57.803340 2.673683
254.840400 54.549580 0.802414
253.393900 58.019850 2.727736
254.619700 56.409680 2.053231
254.976600 55.076190 1.170474
253.844900 59.584480 4.129291
254.665500 56.809540 2.346702
253.405200 59.366520 3.730058
253.435900 58.208920 2.831965
253.499800 58.348190 2.969748
254.880100 54.964400 0.971104
255.050700 55.842910 1.639976
254.576800 56.389210 1.817191
253.588000 58.616750 3.024895
254.698500 56.626480 1.978108
255.172100 55.387680 1.229511
254.945200 55.157360 0.917348
254.766400 53.870130 -0.222386
255.003200 54.069210 0.025147
254.919100 56.133050 1.599245
253.549800 58.598800 2.826660
255.274200 55.573900 1.225557
255.094700 55.484730 1.063180
253.598900 59.401460 3.385188
254.834800 56.938570 2.025716
254.734300 56.821790 1.880741
254.978700 54.293420 -0.026010
253.763400 59.510460 3.472582
255.346000 55.871900 1.358121
254.347400 57.886410 2.414379
253.038400 54.102650 -1.182645
255.141000 54.578520 0.171175
255.014400 54.507960 0.027845
254.670900 56.807890 1.651897
255.088200 55.578380 0.876486
254.871700 56.505720 1.460847
254.092600 59.779130 3.630212
253.950800 59.620510 3.432581
255.199900 54.776360 0.238821
255.014100 60.236790 4.391122
253.208200 54.430040 -1.018403
253.327500 54.525000 -0.888447
255.347700 55.834840 1.092485
253.107500 54.303870 -1.183191
254.777000 57.064790 1.718836
253.772200 58.922940 2.690517
254.566500 57.942900 2.292935
253.058600 54.190540 -1.379336
253.455900 54.725510 -0.771965
255.227500 54.990870 0.269881
254.617600 60.065440 3.940764
255.062200 54.910520 0.118721
255.193500 60.354970 4.381130
253.525300 54.916020 -0.683115
254.302000 59.891710 3.535431
255.282200 55.930910 0.877959
253.925100 59.054530 2.649329
253.382800 54.712140 -1.025211
253.615400 55.223030 -0.574536
255.233200 55.340380 0.290478
255.338900 60.494310 4.370944
253.485400 54.895650 -0.918360
254.865000 57.335120 1.633181
253.727100 55.396780 -0.436494
255.445600 56.424620 1.176994
253.561900 55.099340 -0.772700
254.100900 59.501430 2.927900
253.401800 54.433430 -1.418522
255.505400 56.264360 1.019433
254.967100 57.520430 1.732430
253.665400 55.448510 -0.619855
254.261900 59.074860 2.493093
254.804800 58.115030 1.999837
254.228200 59.438500 2.756887
253.869500 55.756600 -0.325828
254.887300 57.514600 1.530995
254.294500 59.608880 2.885310
253.746600 55.654130 -0.472192
255.431300 56.251360 0.773187
254.998700 57.736110 1.724086
255.284300 55.999890 0.448444
254.515600 59.981710 3.180628
255.732000 60.966620 4.532046
255.226200 60.453580 3.876653
254.450600 59.538230 2.719096
253.788100 55.615210 -0.671814
255.343700 56.245310 0.550150
254.924100 57.726260 1.507042
255.524200 56.443490 0.785444
254.465500 59.741430 2.852130
254.541600 59.316300 2.552280
253.849400 55.891010 -0.476083
253.946300 56.037280 -0.317277
255.911400 61.097150 4.574468
254.207700 56.237500 -0.042736
255.563200 60.831160 4.184022
255.686000 60.950020 4.330007
255.399600 60.644730 3.931745
254.783500 56.366070 0.269251
255.429700 56.443590 0.592807
255.860700 61.082400 4.376233
255.537700 60.809190 3.986383
254.245300 56.479330 -0.019053
254.819400 59.211150 2.392679
254.117600 56.360730 -0.181433
255.574000 56.634770 0.728881
254.642200 59.891350 2.825773
253.963500 54.672980 -1.581411
256.084300 61.222360 4.533281
253.964000 54.202000 -1.975543
254.029200 56.244750 -0.356207
254.931500 57.987150 1.376948
254.864200 59.585490 2.592320
254.311100 56.682210 0.015009
254.100700 55.771860 -0.826310
256.037800 61.206140 4.332042
254.894300 60.240640 3.028074
254.908700 58.958990 2.020431
253.974100 54.536020 -1.934758
253.903000 54.424550 -2.086719
255.605300 60.890940 3.777304
255.349900 56.827860 0.467409
254.369600 56.874540 -0.018552
256.000700 61.187420 4.133807
254.917200 58.766910 1.710817
253.774700 54.195480 -2.418831
256.415500 61.411260 4.485633
254.510800 57.018980 0.119666
253.752600 54.442750 -2.265362
253.890200 53.779370 -2.726452
256.638600 61.531200 4.637268
253.628900 54.349090 -2.427717
255.145000 59.940790 2.669238
255.515100 56.992940 0.539662
255.581600 60.868020 3.577469
256.809800 61.629400 4.729842
255.204400 59.221540 2.077850
255.763700 61.014700 3.732916
255.974500 61.165410 3.935776
255.294500 59.405420 2.233294
255.019700 58.342800 1.222784
254.001800 54.576020 -2.223903
256.565900 61.518420 4.407619
255.040000 58.534380 1.335607
254.926500 57.223100 0.241274
254.532200 57.201430 0.019884
255.933500 61.147780 3.736133
255.438400 60.220440 2.741076
253.357200 54.490350 -2.734670
253.233200 54.398860 -2.881027
256.754400 61.600630 4.428389
254.590300 56.519170 -0.582865
254.692700 57.364950 0.097337
254.714900 56.371660 -0.703574
255.687100 60.624530 3.052241
255.916700 61.122870 3.536501
253.134500 54.400860 -3.072869
254.586500 57.370890 -0.073696
255.175800 58.964250 1.435150
255.230200 58.230800 0.879537
256.682800 61.584900 4.181342
255.472000 59.287300 1.791241
256.243200 61.356140 3.777098
255.871200 60.707390 3.079607
256.908400 61.696900 4.341562
257.304000 62.027900 4.784704
255.614000 59.478530 1.977513
255.173400 57.618010 0.299422
254.732100 57.567140 0.022181
255.320500 59.098510 1.481357
253.221700 53.955850 -3.545930
254.960900 57.660250 0.166382
255.216600 58.921310 1.226516
256.046300 60.838990 3.120436
255.172000 58.575320 0.924708
256.048600 61.196130 3.386040
255.494900 59.249210 1.581006
255.808500 59.845450 2.188008
255.876200 60.028660 2.323842
253.006400 54.255790 -3.571086
253.210300 54.576230 -3.229234
256.416600 61.444880 3.619471
254.864500 57.809520 0.028508
256.066400 60.226240 2.460951
253.149700 53.927030 -3.911202
253.092700 54.582850 -3.425074
255.401900 56.116310 -1.131179
257.682600 62.064570 4.591302
255.973300 59.971230 2.131823
255.418300 58.106230 0.407283
255.687100 59.390650 1.532447
255.367300 55.562340 -1.622615
255.337600 59.030070 1.056691
256.378900 60.497320 2.680189
255.170700 55.149820 -2.082361
257.847400 62.206750 4.715737
254.292100 54.500210 -3.042269
256.646100 61.499830 3.540636
255.094800 55.030040 -2.267330
256.649600 60.821850 2.979862
253.121700 53.905210 -4.132635
253.227700 53.763310 -4.226740
254.488200 54.538020 -3.018543
256.514200 60.433230 2.520770
258.124500 62.324270 4.752188
252.990500 54.659850 -3.710035
255.847300 59.556290 1.482097
252.990300 54.067900 -4.176906
255.306100 58.998590 0.782846
252.841900 54.354910 -4.027441
256.951000 61.570590 3.579638
256.832500 60.905690 2.999241
256.634300 61.321550 3.226620
255.614000 56.544680 -1.001797
256.769300 61.432420 3.334211
255.231200 58.459630 0.263400
255.387000 59.178430 0.895678
258.296300 62.444310 4.828992
253.242800 53.601820 -4.526718
254.831900 54.817910 -2.847888
257.004400 60.839450 2.896834
255.575400 55.871330 -1.678583
256.801200 61.255950 3.118225
255.348400 55.383700 -2.183423
257.806500 61.952480 4.085027
254.986000 58.131540 -0.274674
252.756300 54.460350 -4.212960
255.675600 56.379850 -1.325761
256.620500 60.357980 2.228529
255.644100 56.218180 -1.478555
255.496400 59.348890 0.878721
254.990200 54.989970 -2.777227
255.943700 59.678280 1.337479
256.305500 60.053860 1.785658
255.524200 55.858980 -1.873218
255.442000 55.600410 -2.124740
255.296900 55.371720 -2.376461
255.130600 58.439490 -0.068865
257.485700 61.810410 3.683334
252.702700 54.675970 -4.189336
257.184600 61.450890 3.241403
257.255000 60.915260 2.835623
256.135300 59.819510 1.439119
255.205900 57.791710 -0.610765
255.564600 56.212970 -1.679000
252.698800 54.446620 -4.435194
257.049800 60.626020 2.467017
256.515600 60.202070 1.875509
257.312600 61.625760 3.366654
254.906200 54.985630 -2.982266
255.487600 56.086320 -1.850372
255.693800 56.795280 -1.204681
258.288500 62.384120 4.404719
256.677900 60.304580 1.986093
255.241900 55.359650 -2.576301
255.655800 59.521680 0.872381
252.624400 54.672380 -4.379977
255.666500 56.678170 -1.369634
257.486700 61.779650 3.478500
252.934500 54.003020 -4.777998
257.457200 61.177210 2.989010
254.503500 54.563770 -3.619906
255.447300 56.315160 -1.811936
254.791700 54.991330 -3.175307
257.356200 60.855350 2.635400
255.462000 59.070130 0.319381
257.776700 61.894040 3.631156
252.606600 54.565390 -4.571306
255.312100 55.997660 -2.169546
255.817500 59.648480 0.890191
257.097300 60.575730 2.225370
255.529500 56.575450 -1.662406
254.659100 54.902060 -3.391064
257.964400 62.027350 3.739174
255.024400 55.210790 -3.010754
255.572100 56.784500 -1.525351
257.536700 61.736000 3.284869
252.539800 54.789620 -4.542678
257.688500 61.261560 2.972997
255.191700 56.006380 -2.353585
257.527800 60.968270 2.634002
257.640800 61.091050 2.776988
257.711900 61.882480 3.424114
257.404300 60.811830 2.439766
254.423000 54.549990 -3.889155
256.674600 60.253250 1.637029
258.619300 62.746750 4.492873
255.115300 55.603310 -2.774677
254.551400 54.714480 -3.767919
254.966800 56.572270 -2.119042
254.923600 55.212120 -3.207797
255.578200 57.427200 -1.175224
255.542200 57.122240 -1.439778
255.067500 55.461190 -2.973459
255.500400 56.979650 -1.582156
252.791200 54.235410 -5.026198
257.837200 61.415380 3.000229
255.077400 56.012080 -2.547232
258.928300 63.337570 4.982867
254.578800 55.118840 -3.524050
257.570200 60.926180 2.437171
257.844700 61.614410 3.082268
257.831500 61.183390 2.734166
254.899000 56.385050 -2.432286
256.910100 60.360330 1.637451
258.161500 62.147570 3.629601
254.867600 56.573640 -2.311481
255.502700 57.617010 -1.213645
254.977300 56.015220 -2.730274
255.166700 58.476340 -0.713609
254.890200 56.786080 -2.179033
257.976300 61.353970 2.865018
255.477400 57.422150 -1.408668
254.455100 54.700250 -4.071972
258.765700 62.507400 4.076457
254.389700 55.136730 -3.781905
254.936100 55.598650 -3.177353
254.831600 56.554560 -2.519319
251.986900 53.874210 -5.980746
254.349200 54.625790 -4.269709
255.381500 57.618340 -1.443682
254.823900 56.132120 -2.880398
256.196700 59.665740 0.533766
254.865100 56.764530 -2.382472
259.091500 62.916590 4.437854
252.741900 54.314680 -5.331926
252.455700 54.831650 -5.068269
258.526800 62.189680 3.568394
254.889600 57.374480 -1.937775
254.300200 55.136000 -3.971350
254.812300 56.430140 -2.724267
254.790400 56.022060 -3.064743
257.108700 60.462050 1.488251
254.119300 54.543420 -4.571694
254.788200 55.462440 -3.538371
251.914000 53.868190 -6.177987
254.788100 56.347580 -2.927369
257.749300 60.953510 2.071471
254.302900 54.687840 -4.479257
254.651700 55.478250 -3.704416
259.084900 62.645140 4.012152
257.899700 61.087410 2.226686
257.434800 60.689550 1.684043
255.205800 58.990390 -0.717405
254.745700 56.246840 -3.113706
254.936000 56.816950 -2.577383
254.416500 54.835480 -4.379236
254.228900 55.282250 -4.122410
254.699300 56.113120 -3.272076
254.834700 57.954890 -1.770339
254.490800 55.501500 -3.867053
251.860200 53.850600 -6.421032
258.224100 61.420970 2.539405
259.403300 63.221240 4.497933
257.582200 60.818270 1.739247
251.957700 54.081080 -6.229521
254.107100 54.625310 -4.777802
256.649400 60.125020 0.732479
254.875400 58.134120 -1.689518
255.292000 59.172500 -0.703367
255.071300 58.593680 -1.261916
255.139700 58.976600 -0.939250
258.072300 61.223420 2.180916
254.669100 56.093230 -3.476111
252.507000 54.875280 -5.464795
257.029300 60.416110 1.024963
254.201100 55.254660 -4.381060
254.154800 55.435190 -4.261869
256.549000 59.975410 0.432471
251.798500 53.837560 -6.648071
251.911200 54.065690 -6.440164
254.709600 57.946970 -2.070597
254.368600 54.911920 -4.629571
254.612500 55.855510 -3.774799
254.729300 56.301850 -3.373052
257.881900 61.033670 1.831621
254.825800 57.657430 -2.274479
258.373200 61.538920 2.434199
254.807400 58.271860 -1.830787
255.013100 58.571770 -1.524366
254.614900 56.081570 -3.670550
251.994000 54.283020 -6.335482
258.997900 62.321720 3.287351
254.221700 55.656520 -4.226196
254.170400 54.829340 -4.931955
257.678600 60.884770 1.471962
259.467900 63.141450 4.090266
255.163800 58.920070 -1.270507
254.708200 58.271830 -2.025432
251.893200 54.038000 -6.684998
254.295300 55.193410 -4.633279
254.477300 55.858640 -4.030460
254.665600 58.124220 -2.170621
254.098900 55.527960 -4.480187
255.112400 56.897600 -2.928217
258.211300 61.349910 2.034317
256.597400 60.065370 0.232589
252.672900 54.434220 -6.054028
258.875800 62.143680 2.939492
258.975700 62.298850 3.087115
259.351700 62.919150 3.742367
251.943600 54.265330 -6.572720
254.540700 56.067760 -3.920997
254.659300 56.273280 -3.721309
254.945100 56.494620 -3.419548
255.096600 56.786680 -3.122951
255.007800 57.366180 -2.720529
258.008500 61.168780 1.687026
254.981600 58.728040 -1.670799
254.330000 55.873740 -4.224500
259.454100 63.114640 3.881031
257.652600 60.856820 1.233726
256.740700 60.207570 0.283609
256.329900 59.957690 -0.117651
254.094400 54.921050 -5.126874
252.040300 54.469480 -6.470452
259.253100 62.810160 3.491412
258.708200 61.991260 2.588655
259.078500 62.524810 3.182609
255.110100 58.892540 -1.559560
254.235700 55.011120 -5.014318
258.461900 61.650950 2.196367
257.794600 60.986720 1.343336
254.343300 55.146720 -4.873520
254.272400 55.330140 -4.783943
254.452900 56.063500 -4.131438
254.591600 56.265810 -3.912751
254.649800 58.402720 -2.223512
259.175300 62.726130 3.319279
254.578100 58.258020 -2.374099
254.732100 57.860430 -2.612891
254.858000 58.733880 -1.874850
252.610500 54.765080 -6.066883
259.832600 64.042060 4.637442
255.313000 59.058890 -1.421285
258.146400 61.318290 1.692249
259.557800 63.377250 3.970977
252.139500 54.650750 -6.412008
254.721500 58.569280 -2.114893
259.332200 63.003020 3.545657
254.235400 55.998060 -4.375600
258.281700 61.477950 1.841293
251.911200 54.234640 -6.869362
251.689300 54.159590 -7.038753
259.011600 62.516560 2.991171
256.661400 60.193810 0.035760
257.938800 61.143780 1.380167
254.963500 58.899710 -1.800408
259.712300 63.673480 4.185776
251.998100 54.448050 -6.718495
254.507400 56.261640 -4.113989
254.498400 58.250990 -2.577745
257.764500 60.959450 1.100890
254.038300 55.898860 -4.643596
257.069300 60.438100 0.345805
255.211100 59.058990 -1.621928
255.167500 56.715210 -3.478597
252.535600 54.962330 -6.118488
259.106000 62.711860 3.080428
259.621600 63.566070 3.992816
254.392200 56.184660 -4.282527
258.077800 61.307610 1.482618
254.841000 57.543870 -3.016603
258.502400 61.814440 2.061360
259.496800 63.361030 3.740127
259.279500 62.988620 3.341019
258.936300 62.509670 2.792130
254.626800 58.560840 -2.359135
258.578300 61.971300 2.189776
259.199800 62.882500 3.185859
252.081400 54.632450 -6.670250
256.828700 60.329600 0.049777
257.901300 61.125040 1.179727
254.336600 55.386010 -5.022054
255.058100 59.078890 -1.788974
257.485400 60.679690 0.620252
251.823000 54.341390 -7.049081
254.265500 56.199150 -4.439358
254.711400 58.718610 -2.264928
254.248200 55.282610 -5.177803
254.636000 57.828520 -3.018567
256.987000 60.429810 0.127768
259.556400 63.555490 3.791576
252.191400 54.815390 -6.566995
254.414100 58.398030 -2.717810
259.452400 63.344480 3.539890
258.020100 61.287700 1.233563
255.996500 59.732090 -0.966638
254.054100 55.987190 -4.825688
257.213800 60.536910 0.227582
254.397200 58.228270 -2.929814
255.524600 59.378620 -1.490437
255.187700 56.667140 -3.773641
255.214900 59.261730 -1.738496
251.965900 54.502830 -7.019248
258.120400 61.453330 1.350990
252.321000 54.967790 -6.522368
258.972700 62.694000 2.688362
254.355700 56.421420 -4.427474
259.670200 63.809610 3.877712
259.256800 63.056440 3.084484
259.535500 63.530070 3.579941
258.211700 61.613510 1.439416
254.302800 55.497640 -5.211740
255.363600 59.398290 -1.676486
257.592100 60.756990 0.447785
259.380900 63.206200 3.203701
254.074400 56.200510 -4.820441
254.150700 56.345560 -4.671448
257.132000 60.531030 0.027134
256.666000 60.315660 -0.366104
259.156400 62.957740 2.882533
255.147900 56.650540 -3.970282
258.699100 62.385000 2.194493
259.850300 64.105640 4.088714
252.480600 55.092710 -6.483965
252.081600 54.675250 -7.012798
252.258300 54.959080 -6.717401
254.044300 55.398600 -5.530360
258.278800 61.797190 1.492452
254.363800 58.553790 -2.924261
254.197500 55.502400 -5.393381
254.801800 56.617990 -4.237861
258.371900 61.950180 1.629269
257.336700 60.647880 0.112951
258.476500 62.093080 1.787465
259.506100 63.383430 3.287764
259.953400 64.342540 4.240434
257.953000 61.036730 0.690857
254.719500 58.857060 -2.565169
255.502400 59.541810 -1.658461
255.015200 59.262440 -2.128185
260.135000 65.329480 5.060025
258.193100 61.582790 1.194576
260.023800 64.519680 4.345063
252.212800 54.861720 -6.972536
258.895100 62.755160 2.391997
259.310200 63.186330 2.927854
255.193600 57.159540 -3.766286
259.700000 63.938200 3.682466
251.986100 54.790960 -7.175308
258.289800 61.763950 1.289819
252.436300 55.303550 -6.575143
259.902100 64.327990 4.042794
254.137100 56.529780 -4.810838
255.233500 56.833740 -4.052442
256.572100 60.290160 -0.721966
259.820500 64.202000 3.885419
258.260700 61.342700 0.887934
258.735300 62.599530 2.085353
259.041600 62.934440 2.491459
256.718800 60.398390 -0.612981
258.346300 61.511850 1.023561
254.899200 57.659820 -3.641450
254.384600 56.781450 -4.588050
258.511600 62.223790 1.634229
259.254100 63.173610 2.729219
254.226900 56.713530 -4.727798
259.148500 63.082490 2.580669
255.628600 59.722080 -1.758611
252.147100 54.988150 -7.133221
255.134700 56.829360 -4.280284
256.528500 60.273030 -0.922206
258.974000 62.925790 2.294221
254.211700 55.842570 -5.543387
259.388700 63.344350 2.790665
255.031900 57.589900 -3.854067
260.332200 65.003860 4.447940
255.996300 59.973670 -1.565166
254.481600 56.965180 -4.643605
256.840500 60.497950 -0.770620
259.115800 63.164940 2.391545
252.368800 55.261750 -7.019016
254.279000 56.048080 -5.494128
259.938700 64.109600 3.514954
258.056000 61.135400 0.279408
254.192300 56.780390 -4.981936
258.988600 62.888660 2.073179
259.307800 63.336120 2.573219
260.128800 64.650980 3.977648
259.523900 63.521000 2.792718
259.978000 63.954120 3.346401
257.167900 60.738830 -0.513417
259.006100 62.549960 1.780806
259.083100 63.041330 2.171591
258.727400 61.748520 0.981182
252.247000 55.273410 -7.184259
252.422300 55.684730 -6.786713
259.108900 62.720850 1.909845
259.179200 62.409100 1.698919
259.231500 62.572430 1.840328
256.190000 60.093280 -1.566358
257.327600 60.861090 -0.425009
258.853800 61.877340 1.089181
259.228800 63.332100 2.386981
255.339600 59.462900 -2.505419
259.417900 63.523950 2.598677
254.280600 56.974780 -4.978877
254.457700 59.031710 -3.286881
255.920000 59.949260 -1.877429
254.401600 57.092410 -4.842899
254.298100 56.282210 -5.530057
253.895800 55.965600 -5.972981
257.613800 60.994380 -0.269736
255.788400 59.825380 -2.068028
252.439900 55.540070 -7.024076
259.164300 62.240270 1.428522
258.184600 61.261900 0.190806
258.582300 61.578980 0.627327
254.201400 56.189170 -5.681004
256.954700 60.605690 -0.926458
259.277600 63.197730 2.209652
259.375600 62.509170 1.705116
255.260900 57.469070 -4.220109
259.448100 63.021200 2.103123
259.313800 62.420630 1.531587
259.353500 63.513990 2.402846
260.250400 64.312350 3.441715
257.475100 61.004940 -0.473778
256.736200 60.453880 -1.271912
254.330000 56.930910 -5.183110
259.514500 62.688230 1.791376
259.528000 63.212250 2.193774
259.393800 63.373730 2.252903
254.109000 56.292360 -5.842318
255.463100 59.648280 -2.575765
254.856000 59.333280 -3.112175
255.151800 59.463350 -2.871696
254.479400 59.233170 -3.382240
255.265500 57.438410 -4.418738
260.648600 65.921230 4.785310
254.331100 56.565180 -5.555115
253.911200 56.220480 -6.049090
254.227000 56.476110 -5.702067
258.290500 61.387750 0.072789
259.820500 63.916890 2.782899
257.645200 61.146230 -0.469348
252.412300 55.761710 -7.183236
254.680400 59.357910 -3.294014
260.660100 65.655790 4.488007
255.020400 59.474730 -3.054138
260.242800 64.276980 3.194873
255.595700 59.813380 -2.529723
260.695500 66.133310 4.843564
254.503500 57.352010 -4.986558
254.393200 59.229140 -3.579080
260.048800 64.115430 2.940410
254.005300 56.402180 -5.980042
260.699400 65.874000 4.586273
259.573900 62.739710 1.589256
258.197200 61.385310 -0.130447
254.110800 56.586560 -5.847787
256.798900 60.572670 -1.455155
257.839300 61.275790 -0.407725
255.239100 59.662990 -2.920441
254.269700 56.745120 -5.672744
256.951700 60.682860 -1.315166
255.477800 59.822550 -2.700758
259.432500 62.531590 1.290567
260.379600 64.462210 3.246939
260.170200 64.268160 2.992033
259.234500 62.287140 0.986402
258.923100 61.943290 0.564683
259.593600 63.933730 2.436216
253.981200 56.600170 -6.014227
254.480800 57.325550 -5.211602
259.349200 62.427010 1.094808
255.100500 59.678720 -3.088479
260.738500 66.079690 4.589721
255.353100 59.834510 -2.867795
252.408100 55.998200 -7.280767
260.731600 65.832380 4.386438
258.560800 61.665970 0.084014
260.765100 66.292640 4.737970
256.017900 60.216480 -2.312487
259.878300 63.163580 1.833465
260.303500 64.454090 3.042900
260.707500 65.365320 3.942902
258.714800 61.786230 0.189818
260.023700 64.277930 2.762985
256.175300 60.324620 -2.180102
254.816900 59.727900 -3.319741
258.268200 61.542510 -0.253645
254.400700 57.125190 -5.569658
259.076900 62.140490 0.573967
260.725000 65.564240 4.035335
255.245900 57.872830 -4.610057
253.896800 56.789570 -6.109848
253.979200 56.918610 -5.968872
258.461900 61.665950 -0.116421
259.665100 64.148470 2.390283
256.316400 60.454120 -2.100894
259.538600 62.689860 1.181188
254.658400 57.697420 -5.064304
254.514400 57.277060 -5.474637
250.871000 56.061440 -8.178339
258.150800 61.552690 -0.422885
257.476600 61.101540 -1.107071
256.470700 60.586030 -2.016479
260.582400 66.292420 4.385902
260.720800 65.320990 3.687061
254.482300 59.780600 -3.629028
255.126400 57.876800 -4.817706
256.671500 60.680290 -1.887081
259.201100 62.315770 0.592820
255.919800 60.349960 -2.516972
260.774300 66.743870 4.794292
255.064800 60.002910 -3.209127
257.634300 61.247740 -1.007440
260.030200 63.385990 1.793981
260.053400 64.467470 2.631814
253.854000 57.064000 -6.124157
255.632700 60.261000 -2.779397
260.782600 66.991880 4.943964
260.284100 64.619590 2.846085
259.498400 62.666480 0.940340
254.596900 57.678800 -5.311755
260.570900 66.508310 4.446534
252.253300 56.209090 -7.587792
256.084200 60.474760 -2.421364
257.770700 61.398090 -0.902616
260.165500 63.697620 2.031587
259.684500 62.920430 1.184713
255.777300 60.366580 -2.687616
252.329500 56.486920 -7.370052
255.216000 60.146950 -3.135307
260.503100 66.285190 4.189659
259.600000 62.815350 1.035761
260.627900 65.531690 3.641452
260.488500 66.060480 3.986996
259.907400 64.486790 2.467176
256.231100 60.609640 -2.333353
259.128400 62.305770 0.376378
260.166600 64.628790 2.672639
257.570700 61.232440 -1.238283
260.679700 66.991340 4.742933
256.410100 60.707860 -2.220965
257.041200 60.943610 -1.749836
260.554700 66.480220 4.241104
259.789900 63.099700 1.229358
255.249900 58.393810 -4.622268
260.578300 66.748840 4.448016
260.707100 67.182170 4.837557
259.244500 62.462940 0.444602
254.521700 57.661760 -5.575400
258.697800 62.038030 -0.167905
257.725000 61.373160 -1.163062
252.326000 57.003430 -7.170870
257.898800 61.548750 -0.957593
259.794900 64.486980 2.243323
255.089800 58.210750 -4.926539
252.267400 56.577860 -7.556173
255.723600 60.519970 -2.833273
254.805800 60.211010 -3.518804
259.576400 62.903670 0.855639
259.450600 62.702160 0.636561
259.974500 63.341110 1.384507
254.645600 57.929720 -5.407046
260.532900 65.077290 2.986902
258.032300 61.684000 -0.864183
255.228800 58.606060 -4.615636
255.168700 58.388540 -4.816905
260.618200 66.969730 4.489670
256.175300 60.732990 -2.517637
260.639500 67.171500 4.640711
260.261900 64.096350 2.051873
258.559400 62.049810 -0.368945
260.680700 67.411260 4.836606
260.344500 64.896940 2.693024
259.902200 64.650510 2.287354
260.549500 65.278780 3.085933
255.275800 60.434420 -3.226747
259.339300 62.639940 0.436448
254.555000 60.054030 -3.873884
255.871900 60.649530 -2.778855
260.626600 66.694760 4.203774
252.322500 56.973950 -7.384106
252.228200 56.783180 -7.580358
258.794200 62.248700 -0.171218
260.719500 67.630250 4.941263
257.846100 61.527600 -1.208636
256.340200 60.849840 -2.460235
259.623100 63.213550 0.949412
257.622700 61.359540 -1.460717
260.464700 65.066620 2.785858
259.524500 63.113860 0.787861
260.148200 63.619470 1.481492
256.676300 60.977590 -2.247947
255.008200 58.398890 -5.062360
258.437700 62.056910 -0.568195
260.655500 67.387100 4.638567
257.970800 61.664590 -1.121033
259.753000 63.358500 1.052228
259.518300 62.981170 0.635706
259.217400 62.645640 0.225602
260.513800 65.258100 2.884699
258.674400 62.255840 -0.366866
258.922200 62.482830 -0.076508
255.089200 59.245890 -4.444179
255.082500 58.596170 -4.970311
258.105400 61.788090 -1.031435
260.686500 67.608640 4.743623
259.936500 63.481290 1.140846
254.542800 58.096110 -5.649501
255.820900 60.773020 -2.951942
254.642500 58.258670 -5.485676
259.073200 62.666580 0.073568
260.545400 65.448080 2.951524
255.199400 60.587760 -3.417809
257.750200 61.516750 -1.476093
260.612300 66.139270 3.486535
258.236600 61.926090 -0.947027
256.810200 61.128390 -2.261126
259.971200 64.748690 2.080899
260.317200 65.065220 2.489798
259.434700 62.975820 0.431871
254.577400 60.194810 -4.078717
257.897100 61.650400 -1.365872
259.306400 62.900020 0.285526
258.582100 62.253820 -0.568508
255.682200 60.791320 -3.103581
255.150700 58.998420 -4.768834
260.063500 64.905690 2.198511
252.044100 57.236590 -7.631319
255.376300 60.715150 -3.321397
258.941900 62.681550 -0.092869
260.547500 65.915700 3.192058
257.084400 61.246690 -2.115075
260.687900 66.610870 3.799298
260.536900 65.670290 2.989175
254.646700 60.374900 -3.973078
260.418600 65.240700 2.589438
260.630400 66.345470 3.546574
256.649400 61.152630 -2.419163
258.834600 62.589600 -0.259625
260.704900 67.836720 4.732291
259.619100 63.344580 0.690755
260.277100 64.472000 1.872909
258.746600 62.485220 -0.416980
259.523900 63.175190 0.493931
259.165500 62.917880 0.119885
260.553200 66.125080 3.284299
260.218500 65.063810 2.287954
260.473800 65.428180 2.687269
254.599000 58.439730 -5.592692
258.524900 62.242090 -0.763747
256.522000 61.166700 -2.579001
260.471100 65.659280 2.792132
260.475800 65.905130 2.987812
260.314300 65.240330 2.384396
260.662600 66.586700 3.599465
255.119000 60.745600 -3.628662
260.578800 66.328900 3.344939
255.087500 59.182680 -4.868648
257.534700 61.522970 -1.868774
259.874500 63.612540 0.883168
254.558800 60.366260 -4.205124
256.137800 61.036230 -2.927105
259.050800 62.925970 -0.056551
259.280200 63.097220 0.183943
260.743900 68.053600 4.748160
259.426600 63.175420 0.298889
255.305400 60.843630 -3.499880
260.466600 66.119830 3.086256
254.607200 58.647650 -5.561250
260.427900 64.184270 1.534045
260.150500 63.804250 1.101105
260.379200 65.423700 2.476825
258.707200 62.461270 -0.658416
260.143400 65.048570 2.045504
258.365400 62.105510 -1.108163
258.481700 62.225780 -0.962582
257.680000 61.650430 -1.804774
258.884800 62.716380 -0.417061
260.398000 65.650660 2.597091
260.407400 65.894840 2.791376
260.714900 66.804160 3.645132
260.859000 67.227940 4.040067
259.161200 63.104580 -0.007508
254.995900 59.179490 -5.071289
260.280900 63.959030 1.190932
260.565100 66.578770 3.362407
260.216400 65.231790 2.140340
254.635900 60.650460 -4.113376
260.375500 66.118640 2.903817
254.521000 58.642040 -5.768097
256.896500 61.428600 -2.453752
254.808200 60.784470 -3.983951
258.833500 62.635980 -0.622368
260.259700 65.422700 2.238580
259.378600 63.341360 0.182855
260.358500 66.338140 2.981651
260.765000 68.355400 4.741103
257.519100 61.662360 -2.049822
254.984500 59.423790 -5.013416
254.475200 60.673320 -4.279217
260.332000 65.886940 2.595930
254.863900 59.190050 -5.259936
253.539000 58.641310 -6.326312
260.618000 66.800220 3.434883
256.190900 61.191900 -3.071311
259.906700 63.682620 0.637264
260.295700 65.643580 2.354641
254.942200 59.804810 -4.770399
255.209700 60.996010 -3.724948
260.330000 66.099660 2.698173
254.617500 59.037550 -5.559008
260.489500 64.331990 1.386238
260.213200 63.942220 0.946483
259.087900 62.961470 -0.363697
254.724600 59.209150 -5.407564
257.386400 61.677870 -2.213261
259.724600 63.582470 0.381871
260.903200 67.411710 3.937501
255.567200 61.114240 -3.539264
256.371700 61.323860 -3.023683
260.368100 66.580330 2.994334
258.791300 62.613160 -0.863419
260.272700 65.871750 2.385887
254.462400 58.865060 -5.879669
259.002400 62.856870 -0.615446
260.245100 65.623670 2.132600
257.232700 61.698750 -2.382501
254.726000 60.239110 -4.722606
259.352400 63.491200 0.029011
258.911800 62.754010 -0.764211
254.524200 59.033320 -5.770647
260.292500 66.078130 2.491336
260.159900 63.927010 0.741042
254.785300 59.433050 -5.346096
258.493300 62.328760 -1.309659
253.514300 58.840550 -6.421896
260.821000 67.404790 3.737058
260.894800 68.860460 4.898933
254.549800 59.220890 -5.672430
260.544800 64.855290 1.597058
260.657700 67.200580 3.483750
260.394700 66.807200 3.048797
254.604000 60.408850 -4.726867
255.809200 61.240490 -3.508619
