2014
-2.85 42.966 -14.88531
-2.7 42.966 -14.88531
-2.55 42.9669 -14.84253
-2.4 42.9669 -14.84253
-2.25 42.9669 -14.84253
-2.1 42.9669 -14.84253
-1.95 42.9669 -14.84253
-1.8 42.9669 -14.84253
-1.65 42.9669 -14.84253
-1.5 42.9669 -14.84253
-1.35 42.966 -14.88531
-1.2 42.966 -14.88531
-1.05 42.9639 -14.97093
-0.9 42.9627 -15.01371
-0.75 42.9606 -15.0993
-0.6 42.9597 -15.14211
-0.45 42.9564 -15.27051
-0.3 42.9531 -15.39891
-0.15 42.9489 -15.57012
0 42.9456 -15.69852
0.15 42.936 -16.08372
0.3 42.9318 -16.25493
0.45 42.9276 -16.42611
0.6 42.9096 -17.15373
0.75 42.8988 -17.58174
0.9 42.8934 -17.79573
1.05 42.885 -18.13812
1.2 42.8817 -18.26652
1.35 42.8808 -18.30933
1.5 42.8766 -18.48054
1.65 42.8745 -18.56613
1.8 42.8724 -18.65175
1.95 42.8679 -18.82293
2.1 42.8649 -18.95133
2.25 42.8628 -19.03692
2.4 42.8604 -19.12254
2.55 42.8583 -19.20813
2.7 42.8574 -19.25094
2.85 42.8574 -19.25094
3 42.8532 -19.42215
3.15 42.8532 -19.42215
-13.575 43.044 -21.17742
-13.425 43.0512 -20.87781
-13.275 43.0554 -20.7066
-13.125 43.0608 -20.49261
-12.975 43.0647 -20.3214
-12.825 43.068 -20.193
-12.675 43.0722 -20.02179
-12.525 43.0743 -19.93617
-12.375 43.0773 -19.80777
-12.225 43.0803 -19.67937
-12.075 43.0836 -19.55097
-11.925 43.0866 -19.42257
-11.775 43.0887 -19.33698
-11.625 43.0938 -19.12296
-11.475 43.098 -18.95175
-11.325 43.1043 -18.69495
-11.175 43.1115 -18.39534
-11.025 43.1157 -18.22416
-10.875 43.1199 -18.05295
-10.725 43.1208 -18.01014
-10.575 43.1229 -17.92455
-10.425 43.1241 -17.88174
-10.275 43.125 -17.83893
-10.125 43.1271 -17.75334
-9.975 43.1313 -17.58213
-9.825 43.1364 -17.36811
-9.674999 43.1418 -17.15412
-9.525001 43.146 -16.98291
-9.375 43.1499 -16.8117
-9.225 43.1532 -16.6833
-9.075 43.1553 -16.59771
-8.925 43.1574 -16.51212
-8.775 43.1595 -16.4265
-8.625 43.1604 -16.38369
-8.474999 43.1616 -16.34091
-8.325 43.1625 -16.2981
-8.175 43.1625 -16.2981
-8.025 43.1634 -16.25529
-7.875 43.1646 -16.21251
-7.725 43.1655 -16.1697
-7.575 43.1667 -16.12689
-7.425 43.1676 -16.08411
-7.275 43.1697 -15.99849
-7.125 43.1697 -15.99849
-6.975 43.1709 -15.95568
-6.825 43.1718 -15.9129
-6.675 43.1718 -15.9129
-6.525 43.1718 -15.9129
-6.375 43.173 -15.87009
-6.225 43.173 -15.87009
-6.075 43.1739 -15.82728
-5.925 43.1739 -15.82728
-5.775 43.1751 -15.7845
-5.625 43.176 -15.74169
-5.475 43.1781 -15.65607
-5.325 43.179 -15.61329
-5.175 43.1811 -15.52767
-5.025 43.1823 -15.48489
-4.875 43.1832 -15.44208
-4.725 43.1844 -15.39927
-4.575 43.1853 -15.35649
-4.425 43.1865 -15.31368
-4.275 43.1886 -15.22809
-4.125 43.1886 -15.22809
-3.975 43.1895 -15.18528
-3.825 43.1904 -15.14247
-3.675 43.1925 -15.05688
-3.525 43.1937 -15.01407
-3.375 43.1937 -15.01407
-3.225 43.1946 -14.97126
-3.075 43.1958 -14.92848
-2.925 43.1967 -14.88567
-2.775 43.1979 -14.84286
-2.625 43.1988 -14.80008
-2.475 43.1988 -14.80008
-2.325 43.2 -14.75727
-2.175 43.2 -14.75727
-2.025 43.2009 -14.71446
-1.875 43.2009 -14.71446
-1.725 43.2009 -14.71446
-1.575 43.2009 -14.71446
-1.425 43.2009 -14.71446
-1.275 43.2 -14.75727
-1.125 43.1988 -14.80008
-0.975 43.1979 -14.84286
-0.825 43.1946 -14.97126
-0.675 43.1937 -15.01407
-0.525 43.1904 -15.14247
-0.375 43.1874 -15.27087
-0.225 43.1832 -15.44208
-0.075 43.179 -15.61329
0.075 43.1751 -15.7845
0.225 43.1634 -16.25529
0.375 43.1595 -16.4265
0.525 43.1364 -17.36811
0.675 43.125 -17.83893
0.825 43.1229 -17.92455
0.975 43.1178 -18.13854
1.125 43.1157 -18.22416
1.275 43.1136 -18.30975
1.425 43.1106 -18.43815
1.575 43.1085 -18.52374
1.725 43.1064 -18.60936
1.875 43.1022 -18.78054
2.025 43.1001 -18.86616
2.175 43.098 -18.95175
2.325 43.0959 -19.03737
2.475 43.095 -19.08015
2.625 43.095 -19.08015
2.775 43.0938 -19.12296
2.925 43.0929 -19.16577
3.075 43.0929 -19.16577
3.225 43.092 -19.20855
3.375 43.0908 -19.25136
3.525 43.0878 -19.37976
3.675 43.0866 -19.42257
3.825 43.0857 -19.46538
-13.35 43.2828 -21.00666
-13.2 43.2888 -20.74986
-13.05 43.2948 -20.49303
-12.9 43.2981 -20.36463
-12.75 43.3011 -20.23623
-12.6 43.3062 -20.02224
-12.45 43.308 -19.93662
-12.3 43.311 -19.80822
-12.15 43.3143 -19.67982
-12 43.3182 -19.50861
-11.85 43.3203 -19.42299
-11.7 43.3233 -19.29459
-11.55 43.3284 -19.0806
-11.4 43.3344 -18.82377
-11.25 43.3425 -18.48138
-11.1 43.3476 -18.26736
-10.95 43.3515 -18.09615
-10.8 43.3536 -18.01056
-10.65 43.3557 -17.92494
-10.5 43.3566 -17.88213
-10.35 43.3578 -17.83935
-10.2 43.3596 -17.75373
-10.05 43.3617 -17.66814
-9.9 43.3689 -17.36853
-9.75 43.3719 -17.24013
-9.6 43.3758 -17.06892
-9.45 43.38 -16.89771
-9.3 43.3839 -16.7265
-9.150001 43.386 -16.64088
-9 43.3881 -16.55529
-8.85 43.3902 -16.4697
-8.7 43.3911 -16.42689
-8.55 43.392 -16.38408
-8.400001 43.3932 -16.34127
-8.25 43.3941 -16.29849
-8.1 43.3941 -16.29849
-7.95 43.3953 -16.25568
-7.8 43.3953 -16.25568
-7.65 43.3962 -16.21287
-7.5 43.3971 -16.17006
-7.35 43.3983 -16.12728
-7.2 43.3992 -16.08447
-7.05 43.4013 -15.99888
-6.9 43.4013 -15.99888
-6.75 43.4022 -15.95607
-6.6 43.4034 -15.91326
-6.45 43.4034 -15.91326
-6.3 43.4043 -15.87045
-6.15 43.4043 -15.87045
-6 43.4043 -15.87045
-5.85 43.4052 -15.82767
-5.7 43.4052 -15.82767
-5.55 43.4073 -15.74205
-5.4 43.4082 -15.69927
-5.25 43.4094 -15.65646
-5.1 43.4115 -15.57084
-4.95 43.4115 -15.57084
-4.8 43.4124 -15.52806
-4.65 43.4133 -15.48525
-4.5 43.4145 -15.44244
-4.35 43.4163 -15.35685
-4.2 43.4175 -15.31404
-4.05 43.4196 -15.22845
-3.9 43.4196 -15.22845
-3.75 43.4214 -15.14283
-3.6 43.4226 -15.10002
-3.45 43.4235 -15.05724
-3.3 43.4244 -15.01443
-3.15 43.4256 -14.97162
-3 43.4277 -14.88603
-2.85 43.4286 -14.84322
-2.7 43.4295 -14.80041
-2.55 43.4316 -14.71482
-2.4 43.4328 -14.67201
-2.25 43.4346 -14.58642
-2.1 43.4346 -14.58642
-1.95 43.4358 -14.54361
-1.8 43.4358 -14.54361
-1.65 43.4367 -14.5008
-1.5 43.4376 -14.45802
-1.35 43.4367 -14.5008
-1.2 43.4367 -14.5008
-1.05 43.4358 -14.54361
-0.9 43.4346 -14.58642
-0.75 43.4277 -14.88603
-0.6 43.4244 -15.01443
-0.45 43.4214 -15.14283
-0.3 43.4175 -15.31404
-0.15 43.4133 -15.48525
0 43.4094 -15.65646
0.15 43.4013 -15.99888
0.3 43.3902 -16.4697
0.45 43.3659 -17.49693
0.6 43.3647 -17.53974
0.75 43.3548 -17.96775
0.9 43.3515 -18.09615
1.05 43.3497 -18.18174
1.2 43.3467 -18.31017
1.35 43.3434 -18.43857
1.5 43.3416 -18.52416
1.65 43.3404 -18.56697
1.8 43.3365 -18.73818
1.95 43.3353 -18.78099
2.1 43.3335 -18.86658
2.25 43.3323 -18.90939
2.4 43.3314 -18.95217
2.55 43.3305 -18.99498
2.7 43.3305 -18.99498
2.85 43.3293 -19.03779
3 43.3284 -19.0806
3.15 43.3284 -19.0806
3.3 43.3284 -19.0806
3.45 43.3272 -19.12338
3.6 43.3263 -19.16619
3.75 43.3254 -19.209
3.9 43.3242 -19.25178
4.05 43.3224 -19.3374
4.2 43.3212 -19.38021
4.35 43.3191 -19.4658
4.5 43.3161 -19.5942
4.65 43.3122 -19.76541
4.8 43.3131 -19.7226
-13.125 43.5204 -20.87871
-12.975 43.5261 -20.62191
-12.825 43.5312 -20.40789
-12.675 43.5351 -20.23668
-12.525 43.5381 -20.10828
-12.375 43.5411 -19.97985
-12.225 43.545 -19.80864
-12.075 43.5489 -19.63746
-11.925 43.5519 -19.50903
-11.775 43.5537 -19.42344
-11.625 43.5579 -19.25223
-11.475 43.5636 -18.9954
-11.325 43.5717 -18.65298
-11.175 43.5795 -18.31056
-11.025 43.5834 -18.13935
-10.875 43.5864 -18.01095
-10.725 43.5882 -17.92536
-10.575 43.5903 -17.83974
-10.425 43.5912 -17.79696
-10.275 43.5924 -17.75415
-10.125 43.5942 -17.66853
-9.975 43.5981 -17.49732
-9.825 43.6023 -17.32611
-9.674999 43.6071 -17.11209
-9.525001 43.6101 -16.98369
-9.375 43.614 -16.81248
-9.225 43.617 -16.68408
-9.075 43.6179 -16.64127
-8.925 43.62 -16.55568
-8.775 43.6218 -16.47006
-8.625 43.623 -16.42725
-8.474999 43.6239 -16.38447
-8.325 43.6248 -16.34166
-8.175 43.6248 -16.34166
-8.025 43.6257 -16.29885
-7.875 43.6257 -16.29885
-7.725 43.6269 -16.25607
-7.575 43.6269 -16.25607
-7.425 43.6287 -16.17045
-7.275 43.6287 -16.17045
-7.125 43.6308 -16.08486
-6.975 43.6317 -16.04205
-6.825 43.6329 -15.99924
-6.675 43.6338 -15.95643
-6.525 43.6338 -15.95643
-6.375 43.6347 -15.91365
-6.225 43.6356 -15.87084
-6.075 43.6356 -15.87084
-5.925 43.6368 -15.82803
-5.775 43.6368 -15.82803
-5.625 43.6377 -15.78522
-5.475 43.6386 -15.74244
-5.325 43.6398 -15.69963
-5.175 43.6407 -15.65682
-5.025 43.6416 -15.61401
-4.875 43.6416 -15.61401
-4.725 43.6437 -15.52842
-4.575 43.6446 -15.48561
-4.425 43.6455 -15.4428
-4.275 43.6476 -15.35721
-4.125 43.6485 -15.3144
-3.975 43.6494 -15.27159
-3.825 43.6506 -15.22881
-3.675 43.6524 -15.14319
-3.525 43.6536 -15.10038
-3.375 43.6545 -15.0576
-3.225 43.6563 -14.97198
-3.075 43.6584 -14.88639
-2.925 43.6593 -14.84358
-2.775 43.6614 -14.75796
-2.625 43.6644 -14.62956
-2.475 43.6653 -14.58675
-2.325 43.6683 -14.45835
-2.175 43.6692 -14.41554
-2.025 43.6722 -14.28714
-1.875 43.6743 -14.20155
-1.725 43.6752 -14.15874
-1.575 43.6773 -14.07312
-1.425 43.6773 -14.07312
-1.275 43.6782 -14.03034
-1.125 43.68 -13.94472
-0.975 43.6773 -14.07312
-0.825 43.6782 -14.03034
-0.675 43.6821 -13.85913
-0.525 43.6812 -13.90194
-0.375 43.6761 -14.11593
-0.225 43.6773 -14.07312
-0.075 43.6812 -13.90194
0.075 43.6368 -15.82803
0.225 43.6188 -16.59846
0.375 43.614 -16.81248
0.525 43.5963 -17.58294
0.675 43.5864 -18.01095
0.825 43.5855 -18.05376
0.975 43.5834 -18.13935
1.125 43.5804 -18.26778
1.275 43.5765 -18.43899
1.425 43.5744 -18.52458
1.575 43.5735 -18.56739
1.725 43.5717 -18.65298
1.875 43.5696 -18.7386
2.025 43.5687 -18.78141
2.175 43.5675 -18.82419
2.325 43.5666 -18.867
2.475 43.5657 -18.90981
2.625 43.5657 -18.90981
2.775 43.5648 -18.95262
2.925 43.5648 -18.95262
3.075 43.5648 -18.95262
3.225 43.5636 -18.9954
3.375 43.5627 -19.03821
3.525 43.5627 -19.03821
3.675 43.5627 -19.03821
3.825 43.5618 -19.08102
3.975 43.5606 -19.12383
4.125 43.5597 -19.16661
4.275 43.5588 -19.20942
4.425 43.5579 -19.25223
4.575 43.5558 -19.33782
4.725 43.5537 -19.42344
4.875 43.5537 -19.42344
5.025 43.5528 -19.46625
5.175 43.551 -19.55184
5.325 43.5498 -19.59465
5.475 43.5438 -19.85145
5.625 43.542 -19.93707
5.775 43.5411 -19.97985
5.925 43.5411 -19.97985
-13.05 43.7481 -21.1788
-12.9 43.7556 -20.83638
-12.75 43.7634 -20.49393
-12.6 43.7682 -20.27994
-12.45 43.7712 -20.15151
-12.3 43.7748 -19.9803
-12.15 43.7796 -19.76628
-12 43.7826 -19.63788
-11.85 43.7856 -19.50948
-11.7 43.7883 -19.38105
-11.55 43.7922 -19.20984
-11.4 43.8009 -18.82461
-11.25 43.8096 -18.43938
-11.1 43.8153 -18.18258
-10.95 43.8192 -18.01137
-10.8 43.821 -17.92575
-10.65 43.8228 -17.84016
-10.5 43.824 -17.79735
-10.35 43.8249 -17.75454
-10.2 43.8267 -17.66892
-10.05 43.8288 -17.58333
-9.9 43.8315 -17.45493
-9.75 43.8354 -17.28372
-9.6 43.8393 -17.11251
-9.45 43.8423 -16.98408
-9.3 43.8459 -16.81287
-9.150001 43.848 -16.72728
-9 43.8498 -16.64166
-8.85 43.8519 -16.55607
-8.7 43.8528 -16.51326
-8.55 43.8537 -16.47045
-8.400001 43.8555 -16.38486
-8.25 43.8555 -16.38486
-8.1 43.8555 -16.38486
-7.95 43.8567 -16.34205
-7.8 43.8576 -16.29924
-7.65 43.8585 -16.25643
-7.5 43.8585 -16.25643
-7.35 43.8594 -16.21362
-7.2 43.8603 -16.17084
-7.05 43.8624 -16.08522
-6.9 43.8633 -16.04241
-6.75 43.8642 -15.9996
-6.6 43.8651 -15.95682
-6.45 43.8651 -15.95682
-6.3 43.8663 -15.91401
-6.15 43.8672 -15.8712
-6 43.8681 -15.82839
-5.85 43.8681 -15.82839
-5.7 43.869 -15.78561
-5.55 43.8699 -15.7428
-5.4 43.8711 -15.69999
-5.25 43.872 -15.65718
-5.1 43.872 -15.65718
-4.95 43.8729 -15.6144
-4.8 43.8738 -15.57159
-4.65 43.8747 -15.52878
-4.5 43.8759 -15.48597
-4.35 43.8768 -15.44319
-4.2 43.8786 -15.35757
-4.05 43.8795 -15.31476
-3.9 43.8816 -15.22917
-3.75 43.8825 -15.18636
-3.6 43.8843 -15.10074
-3.45 43.8864 -15.01515
-3.3 43.8873 -14.97234
-3.15 43.8891 -14.88672
-3 43.8912 -14.80113
-2.85 43.8939 -14.67273
-2.7 43.8978 -14.50152
-2.55 43.8999 -14.4159
-2.4 43.9017 -14.33028
-2.25 43.9056 -14.15907
-2.1 43.9065 -14.11626
-1.95 43.9095 -13.98786
-1.8 43.9122 -13.85946
-1.65 43.9143 -13.77387
-1.5 43.9152 -13.73106
-1.35 43.9179 -13.60263
-1.2 43.9179 -13.60263
-1.05 43.9191 -13.55985
-0.9 43.92 -13.51704
-0.75 43.9209 -13.47423
-0.6 43.92 -13.51704
-0.45 43.9191 -13.55985
-0.3 43.9209 -13.47423
-0.15 43.9152 -13.73106
0 43.9152 -13.73106
0.15 43.9131 -13.81665
0.3 43.9143 -13.77387
0.45 43.8258 -17.71173
0.6 43.818 -18.05418
0.75 43.818 -18.05418
0.9 43.8162 -18.13977
1.05 43.8132 -18.26817
1.2 43.8105 -18.3966
1.35 43.8075 -18.525
1.5 43.8057 -18.61059
1.65 43.8048 -18.6534
1.8 43.8036 -18.69621
1.95 43.8027 -18.73902
2.1 43.8027 -18.73902
2.25 43.8018 -18.78183
2.4 43.8009 -18.82461
2.55 43.8009 -18.82461
2.7 43.8009 -18.82461
2.85 43.8 -18.86742
3 43.8 -18.86742
3.15 43.7988 -18.91023
3.3 43.7988 -18.91023
3.45 43.7979 -18.95304
3.6 43.7979 -18.95304
3.75 43.797 -18.99585
3.9 43.797 -18.99585
4.05 43.7961 -19.03863
4.2 43.7952 -19.08144
4.35 43.7952 -19.08144
4.5 43.794 -19.12425
4.65 43.7922 -19.20984
4.8 43.7913 -19.25265
4.95 43.7913 -19.25265
5.1 43.7892 -19.33827
5.25 43.7883 -19.38105
5.4 43.7874 -19.42386
5.55 43.7865 -19.46667
5.7 43.7856 -19.50948
5.85 43.7835 -19.59507
6 43.7835 -19.59507
6.15 43.7787 -19.80909
6.3 43.7796 -19.76628
6.45 43.7769 -19.89471
6.6 43.773 -20.06592
6.75 43.7682 -20.27994
-12.825 43.9854 -21.05085
-12.675 43.9902 -20.83683
-12.525 44.0013 -20.32317
-12.375 44.004 -20.19477
-12.225 44.0079 -20.02356
-12.075 44.0127 -19.80954
-11.925 44.0163 -19.63833
-11.775 44.019 -19.5099
-11.625 44.022 -19.3815
-11.475 44.0274 -19.12467
-11.325 44.0379 -18.65382
-11.175 44.0454 -18.3114
-11.025 44.0499 -18.09738
-10.875 44.0526 -17.96895
-10.725 44.0556 -17.84055
-10.575 44.0565 -17.79774
-10.425 44.0583 -17.71215
-10.275 44.0592 -17.66934
-10.125 44.0613 -17.58372
-9.975 44.0631 -17.49813
-9.825 44.0649 -17.41251
-9.674999 44.0685 -17.2413
-9.525001 44.0715 -17.1129
-9.375 44.0742 -16.98447
-9.225 44.0781 -16.81326
-9.075 44.0799 -16.72764
-8.925 44.0817 -16.64205
-8.775 44.0826 -16.59924
-8.625 44.0835 -16.55643
-8.474999 44.0844 -16.51365
-8.325 44.0865 -16.42803
-8.175 44.0865 -16.42803
-8.025 44.0874 -16.38522
-7.875 44.0883 -16.34241
-7.725 44.0892 -16.2996
-7.575 44.0901 -16.25682
-7.425 44.091 -16.21401
-7.275 44.0919 -16.1712
-7.125 44.0928 -16.12839
-6.975 44.0949 -16.0428
-6.825 44.0958 -15.99999
-6.675 44.0967 -15.95718
-6.525 44.0967 -15.95718
-6.375 44.0976 -15.91437
-6.225 44.0985 -15.87159
-6.075 44.0994 -15.82878
-5.925 44.1003 -15.78597
-5.775 44.1003 -15.78597
-5.625 44.1015 -15.74316
-5.475 44.1024 -15.70035
-5.325 44.1033 -15.65757
-5.175 44.1042 -15.61476
-5.025 44.1042 -15.61476
-4.875 44.1051 -15.57195
-4.725 44.106 -15.52914
-4.575 44.1069 -15.48633
-4.425 44.1078 -15.44355
-4.275 44.1087 -15.40074
-4.125 44.1108 -15.31512
-3.975 44.1126 -15.22953
-3.825 44.1135 -15.18672
-3.675 44.1153 -15.1011
-3.525 44.1171 -15.01551
-3.375 44.1192 -14.92989
-3.225 44.1219 -14.80149
-3.075 44.1237 -14.71587
-2.925 44.1267 -14.58747
-2.775 44.1303 -14.41623
-2.625 44.133 -14.28783
-2.475 44.1351 -14.20224
-2.325 44.1378 -14.07381
-2.175 44.1414 -13.9026
-2.025 44.1444 -13.7742
-1.875 44.1462 -13.68858
-1.725 44.1501 -13.51737
-1.575 44.151 -13.47456
-1.425 44.1537 -13.34616
-1.275 44.1555 -13.26054
-1.125 44.1564 -13.21773
-0.975 44.1564 -13.21773
-0.825 44.1573 -13.17492
-0.675 44.1603 -13.04652
-0.525 44.1585 -13.13214
-0.375 44.1564 -13.21773
-0.225 44.1573 -13.17492
-0.075 44.1564 -13.21773
0.075 44.1519 -13.43175
0.225 44.1537 -13.34616
0.375 44.1528 -13.38894
0.525 44.1519 -13.43175
0.675 44.1501 -13.51737
0.825 44.049 -18.14019
0.975 44.0463 -18.26859
1.125 44.0415 -18.48261
1.275 44.0388 -18.61101
1.425 44.0388 -18.61101
1.575 44.0379 -18.65382
1.725 44.037 -18.69663
1.875 44.0358 -18.73944
2.025 44.0358 -18.73944
2.175 44.037 -18.69663
2.325 44.0349 -18.78225
2.475 44.0349 -18.78225
2.625 44.0349 -18.78225
2.775 44.0349 -18.78225
2.925 44.0349 -18.78225
3.075 44.034 -18.82503
3.225 44.034 -18.82503
3.375 44.034 -18.82503
3.525 44.0331 -18.86784
3.675 44.0322 -18.91065
3.825 44.0322 -18.91065
3.975 44.0322 -18.91065
4.125 44.0313 -18.95346
4.275 44.0304 -18.99627
4.425 44.0295 -19.03905
4.575 44.0283 -19.08186
4.725 44.0274 -19.12467
4.875 44.0274 -19.12467
5.025 44.0265 -19.16748
5.175 44.0256 -19.21029
5.325 44.0247 -19.25307
5.475 44.0247 -19.25307
5.625 44.0238 -19.29588
5.775 44.0229 -19.33869
5.925 44.0211 -19.42431
6.075 44.0211 -19.42431
6.225 44.0199 -19.46709
6.375 44.0199 -19.46709
6.525 44.0181 -19.55271
6.675 44.0172 -19.59552
6.825 44.0154 -19.68111
6.975 44.0163 -19.63833
7.125 44.0145 -19.72392
7.275 44.0115 -19.85232
7.425 44.0106 -19.89513
7.575 44.0079 -20.02356
7.725 44.0052 -20.15196
8.025 44.004 -20.19477
-12.6 44.2173 -21.17973
-12.45 44.2317 -20.49483
-12.3 44.2383 -20.19522
-12.15 44.2401 -20.1096
-12 44.2446 -19.89558
-11.85 44.2482 -19.72437
-11.7 44.2527 -19.51032
-11.55 44.2545 -19.42473
-11.4 44.2626 -19.03947
-11.25 44.2746 -18.48303
-11.1 44.2809 -18.18339
-10.95 44.2845 -18.01218
-10.8 44.2872 -17.88375
-10.65 44.289 -17.79816
-10.5 44.2899 -17.75535
-10.35 44.2917 -17.66973
-10.2 44.2926 -17.62695
-10.05 44.2944 -17.54133
-9.9 44.2962 -17.45571
-9.75 44.2983 -17.37012
-9.6 44.301 -17.24169
-9.45 44.3037 -17.11329
-9.3 44.3073 -16.94205
-9.150001 44.3082 -16.89927
-9 44.31 -16.81365
-8.85 44.3118 -16.72803
-8.7 44.3136 -16.64244
-8.55 44.3145 -16.59963
-8.400001 44.3154 -16.55682
-8.25 44.3172 -16.4712
-8.1 44.3181 -16.42842
-7.95 44.319 -16.38561
-7.8 44.3199 -16.3428
-7.65 44.3208 -16.29999
-7.5 44.3226 -16.2144
-7.35 44.3235 -16.17159
-7.2 44.3253 -16.08597
-7.05 44.3262 -16.04316
-6.9 44.3262 -16.04316
-6.75 44.328 -15.95757
-6.6 44.3292 -15.91476
-6.45 44.3292 -15.91476
-6.3 44.3301 -15.87195
-6.15 44.331 -15.82914
-6 44.3319 -15.78633
-5.85 44.3328 -15.74355
-5.7 44.3337 -15.70074
-5.55 44.3346 -15.65793
-5.4 44.3346 -15.65793
-5.25 44.3355 -15.61512
-5.1 44.3364 -15.57231
-4.95 44.3364 -15.57231
-4.8 44.3373 -15.5295
-4.65 44.3382 -15.48669
-4.5 44.3391 -15.44391
-4.35 44.34 -15.4011
-4.2 44.3418 -15.31548
-4.05 44.3427 -15.27267
-3.9 44.3445 -15.18708
-3.75 44.3463 -15.10146
-3.6 44.3481 -15.01587
-3.45 44.3508 -14.88744
-3.3 44.3526 -14.80185
-3.15 44.3553 -14.67342
-3 44.358 -14.54502
-2.85 44.3619 -14.37378
-2.7 44.3655 -14.20257
-2.55 44.3682 -14.07417
-2.4 44.3709 -13.94574
-2.25 44.3745 -13.77453
-2.1 44.3772 -13.6461
-1.95 44.3799 -13.5177
-1.8 44.3826 -13.38927
-1.65 44.3853 -13.26087
-1.5 44.388 -13.13247
-1.35 44.3907 -13.00404
-1.2 44.3928 -12.91842
-1.05 44.3928 -12.91842
-0.9 44.3955 -12.79002
-0.75 44.3955 -12.79002
-0.6 44.3964 -12.74721
-0.45 44.3955 -12.79002
-0.3 44.3955 -12.79002
-0.15 44.3973 -12.7044
0 44.3973 -12.7044
0.15 44.3955 -12.79002
0.3 44.3991 -12.61881
0.45 44.3907 -13.00404
0.6 44.3862 -13.21806
0.75 44.388 -13.13247
0.9 44.3862 -13.21806
1.05 44.2728 -18.56865
1.2 44.271 -18.65424
1.35 44.271 -18.65424
1.5 44.2701 -18.69705
1.65 44.2701 -18.69705
1.8 44.2701 -18.69705
1.95 44.2692 -18.73986
2.1 44.2701 -18.69705
2.25 44.2692 -18.73986
2.4 44.2692 -18.73986
2.55 44.2692 -18.73986
2.7 44.2692 -18.73986
2.85 44.2692 -18.73986
3 44.2692 -18.73986
3.15 44.2683 -18.78267
3.3 44.2683 -18.78267
3.45 44.2683 -18.78267
3.6 44.2674 -18.82548
3.75 44.2665 -18.86826
3.9 44.2665 -18.86826
4.05 44.2665 -18.86826
4.2 44.2653 -18.91107
4.35 44.2644 -18.95388
4.5 44.2644 -18.95388
4.65 44.2644 -18.95388
4.8 44.2635 -18.99669
4.95 44.2626 -19.03947
5.1 44.2626 -19.03947
5.25 44.2617 -19.08228
5.4 44.2608 -19.12509
5.55 44.2608 -19.12509
5.7 44.2599 -19.1679
5.85 44.259 -19.21071
6 44.2581 -19.25352
6.15 44.2581 -19.25352
6.3 44.2581 -19.25352
6.45 44.2581 -19.25352
6.6 44.2563 -19.33911
6.75 44.2554 -19.38192
6.9 44.2545 -19.42473
7.05 44.2545 -19.42473
7.2 44.2518 -19.55313
7.35 44.2518 -19.55313
7.5 44.2518 -19.55313
7.65 44.25 -19.63875
7.8 44.2509 -19.59594
7.95 44.2491 -19.68156
8.1 44.2455 -19.85277
8.25 44.2464 -19.80996
8.400001 44.2428 -19.9812
8.55 44.2428 -19.9812
8.7 44.241 -20.06679
8.85 44.2344 -20.36643
-12.375 44.4582 -20.88054
-12.225 44.4705 -20.28126
-12.075 44.4714 -20.23845
-11.925 44.475 -20.06724
-11.775 44.4801 -19.81041
-11.625 44.4855 -19.55358
-11.475 44.4891 -19.38234
-11.325 44.4978 -18.9543
-11.175 44.5074 -18.48345
-11.025 44.5146 -18.141
-10.875 44.5182 -17.96979
-10.725 44.5209 -17.84136
-10.575 44.5224 -17.75577
-10.425 44.5242 -17.67015
-10.275 44.526 -17.58453
-10.125 44.5269 -17.54172
-9.975 44.5287 -17.45613
-9.825 44.5305 -17.37051
-9.674999 44.5323 -17.28489
-9.525001 44.5341 -17.19927
-9.375 44.5368 -17.07087
-9.225 44.5383 -16.98525
-9.075 44.5401 -16.89963
-8.925 44.5419 -16.81404
-8.775 44.5437 -16.72842
-8.625 44.5446 -16.68561
-8.474999 44.5464 -16.60002
-8.325 44.5482 -16.5144
-8.175 44.5491 -16.47159
-8.025 44.5509 -16.386
-7.875 44.5518 -16.34319
-7.725 44.5527 -16.30038
-7.575 44.5542 -16.21476
-7.425 44.5551 -16.17195
-7.275 44.5569 -16.08636
-7.125 44.5578 -16.04355
-6.975 44.5587 -16.00074
-6.825 44.5587 -16.00074
-6.675 44.5596 -15.95793
-6.525 44.5605 -15.91512
-6.375 44.5614 -15.87231
-6.225 44.5623 -15.8295
-6.075 44.5632 -15.78672
-5.925 44.5632 -15.78672
-5.775 44.5641 -15.74391
-5.625 44.565 -15.7011
-5.475 44.5659 -15.65829
-5.325 44.5668 -15.61548
-5.175 44.5668 -15.61548
-5.025 44.5677 -15.57267
-4.875 44.5683 -15.52989
-4.725 44.5683 -15.52989
-4.575 44.5692 -15.48708
-4.425 44.571 -15.40146
-4.275 44.5719 -15.35865
-4.125 44.5728 -15.31584
-3.975 44.5746 -15.23025
-3.825 44.5773 -15.10182
-3.675 44.5782 -15.05901
-3.525 44.5818 -14.8878
-3.375 44.5833 -14.80218
-3.225 44.5869 -14.63097
-3.075 44.5887 -14.54535
-2.925 44.5932 -14.33133
-2.775 44.5968 -14.16012
-2.625 44.5992 -14.03169
-2.475 44.6019 -13.90329
-2.325 44.6055 -13.73205
-2.175 44.61 -13.51803
-2.025 44.6127 -13.3896
-1.875 44.6151 -13.2612
-1.725 44.6178 -13.13277
-1.575 44.6223 -12.91875
-1.425 44.625 -12.79035
-1.275 44.6268 -12.70473
-1.125 44.6277 -12.66192
-0.975 44.6292 -12.5763
-0.825 44.6328 -12.40509
-0.675 44.6337 -12.36228
-0.525 44.6319 -12.4479
-0.375 44.6364 -12.23388
-0.225 44.6355 -12.27666
-0.075 44.6355 -12.27666
0.075 44.6346 -12.31947
0.225 44.6355 -12.27666
0.375 44.6355 -12.27666
0.525 44.6346 -12.31947
0.675 44.6301 -12.53352
0.825 44.631 -12.49071
0.975 44.6241 -12.83316
1.125 44.6241 -12.83316
1.275 44.5032 -18.69747
1.425 44.5023 -18.74028
1.575 44.5023 -18.74028
1.725 44.5023 -18.74028
1.875 44.5014 -18.78309
2.025 44.5023 -18.74028
2.175 44.5023 -18.74028
2.325 44.5023 -18.74028
2.475 44.5023 -18.74028
2.625 44.5023 -18.74028
2.775 44.5023 -18.74028
2.925 44.5023 -18.74028
3.075 44.5023 -18.74028
3.225 44.5023 -18.74028
3.375 44.5023 -18.74028
3.525 44.5023 -18.74028
3.675 44.5014 -18.78309
3.825 44.5014 -18.78309
3.975 44.5014 -18.78309
4.125 44.5005 -18.8259
4.275 44.4996 -18.86868
4.425 44.4996 -18.86868
4.575 44.4996 -18.86868
4.725 44.4996 -18.86868
4.875 44.4987 -18.91149
5.025 44.4987 -18.91149
5.175 44.4978 -18.9543
5.325 44.4969 -18.99711
5.475 44.4969 -18.99711
5.625 44.496 -19.03992
5.775 44.496 -19.03992
5.925 44.496 -19.03992
6.075 44.4951 -19.08273
6.225 44.4942 -19.12551
6.375 44.4942 -19.12551
6.525 44.4942 -19.12551
6.675 44.4933 -19.16832
6.825 44.4924 -19.21113
6.975 44.4918 -19.25394
7.125 44.4918 -19.25394
7.275 44.49 -19.33956
7.425 44.4909 -19.29675
7.575 44.4891 -19.38234
7.725 44.4882 -19.42515
7.875 44.4882 -19.42515
8.025 44.4873 -19.46796
8.175 44.4855 -19.55358
8.325 44.4846 -19.59639
8.474999 44.4828 -19.68198
8.625 44.4828 -19.68198
8.775 44.481 -19.7676
8.925 44.4792 -19.85322
9.075 44.4765 -19.98162
9.225 44.4759 -20.02443
9.375 44.4765 -19.98162
9.525001 44.4732 -20.15286
9.674999 44.4732 -20.15286
9.825 44.4723 -20.19567
9.975 44.4642 -20.5809
10.125 44.466 -20.49528
-12.15 44.6976 -20.62416
-12 44.7012 -20.45292
-11.85 44.7063 -20.19609
-11.7 44.7114 -19.93926
-11.55 44.7183 -19.59681
-11.4 44.7216 -19.4256
-11.25 44.7321 -18.91191
-11.1 44.7414 -18.44106
-10.95 44.7483 -18.09861
-10.8 44.7516 -17.92737
-10.65 44.7543 -17.79897
-10.5 44.7561 -17.71335
-10.35 44.7576 -17.62773
-10.2 44.7594 -17.54214
-10.05 44.7612 -17.45652
-9.9 44.7627 -17.3709
-9.75 44.7645 -17.28528
-9.6 44.7654 -17.24247
-9.45 44.7672 -17.15688
-9.3 44.7696 -17.02845
-9.150001 44.7714 -16.94283
-9 44.7732 -16.85724
-8.85 44.7747 -16.77162
-8.7 44.7756 -16.72881
-8.55 44.7774 -16.64319
-8.400001 44.7792 -16.5576
-8.25 44.7807 -16.47198
-8.1 44.7825 -16.38636
-7.95 44.7843 -16.30074
-7.8 44.7852 -16.25796
-7.65 44.7858 -16.21515
-7.5 44.7867 -16.17234
-7.35 44.7876 -16.12953
-7.2 44.7894 -16.04391
-7.05 44.7903 -16.0011
-6.9 44.7903 -16.0011
-6.75 44.7912 -15.95829
-6.6 44.7912 -15.95829
-6.45 44.7918 -15.91551
-6.3 44.7927 -15.8727
-6.15 44.7936 -15.82989
-6 44.7945 -15.78708
-5.85 44.7945 -15.78708
-5.7 44.7954 -15.74427
-5.55 44.7963 -15.70146
-5.4 44.7963 -15.70146
-5.25 44.7972 -15.65865
-5.1 44.7978 -15.61587
-4.95 44.7987 -15.57306
-4.8 44.7987 -15.57306
-4.65 44.7996 -15.53025
-4.5 44.8005 -15.48744
-4.35 44.8023 -15.40182
-4.2 44.8038 -15.31623
-4.05 44.8047 -15.27342
-3.9 44.8065 -15.1878
-3.75 44.8083 -15.10218
-3.6 44.8107 -14.97378
-3.45 44.8143 -14.80254
-3.3 44.8167 -14.67414
-3.15 44.8194 -14.54571
-3 44.8236 -14.33169
-2.85 44.8272 -14.16045
-2.7 44.8296 -14.03202
-2.55 44.8323 -13.90362
-2.4 44.8365 -13.68957
-2.25 44.8407 -13.47555
-2.1 44.8434 -13.34712
-1.95 44.8467 -13.17591
-1.8 44.8509 -12.96189
-1.65 44.8536 -12.83346
-1.5 44.8569 -12.66225
-1.35 44.8596 -12.53382
-1.2 44.8614 -12.4482
-1.05 44.8638 -12.3198
-0.9 44.8674 -12.14856
-0.75 44.8689 -12.06297
-0.6 44.8698 -12.02016
-0.45 44.8734 -11.84892
-0.3 44.8749 -11.76333
-0.15 44.8743 -11.80611
0 44.8749 -11.76333
0.15 44.8749 -11.76333
0.3 44.8749 -11.76333
0.45 44.8749 -11.76333
0.6 44.8758 -11.72052
0.75 44.8749 -11.76333
0.9 44.8734 -11.84892
1.05 44.8638 -12.3198
1.2 44.8614 -12.4482
1.35 44.8647 -12.27699
1.5 44.7345 -18.78351
1.65 44.7345 -18.78351
1.8 44.7345 -18.78351
1.95 44.7345 -18.78351
2.1 44.7345 -18.78351
2.25 44.7345 -18.78351
2.4 44.7345 -18.78351
2.55 44.7354 -18.7407
2.7 44.7354 -18.7407
2.85 44.7354 -18.7407
3 44.7354 -18.7407
3.15 44.7354 -18.7407
3.3 44.7354 -18.7407
3.45 44.7363 -18.69789
3.6 44.7354 -18.7407
3.75 44.7354 -18.7407
3.9 44.7354 -18.7407
4.05 44.7345 -18.78351
4.2 44.7345 -18.78351
4.35 44.7345 -18.78351
4.5 44.7345 -18.78351
4.65 44.7336 -18.82632
4.8 44.7336 -18.82632
4.95 44.7327 -18.86913
5.1 44.7327 -18.86913
5.25 44.7327 -18.86913
5.4 44.7321 -18.91191
5.55 44.7321 -18.91191
5.7 44.7321 -18.91191
5.85 44.7312 -18.95472
6 44.7312 -18.95472
6.15 44.7303 -18.99753
6.3 44.7303 -18.99753
6.45 44.7303 -18.99753
6.6 44.7294 -19.04034
6.75 44.7294 -19.04034
6.9 44.7285 -19.08315
7.05 44.7285 -19.08315
7.2 44.7276 -19.12596
7.35 44.7276 -19.12596
7.5 44.7267 -19.16877
7.65 44.7261 -19.21155
7.8 44.7252 -19.25436
7.95 44.7252 -19.25436
8.1 44.7234 -19.33998
8.25 44.7225 -19.38279
8.400001 44.7225 -19.38279
8.55 44.7201 -19.51119
8.7 44.7201 -19.51119
8.85 44.7183 -19.59681
9 44.7183 -19.59681
9.150001 44.7174 -19.63962
9.3 44.7147 -19.76805
9.45 44.7147 -19.76805
9.6 44.7123 -19.89645
9.75 44.7114 -19.93926
9.9 44.7123 -19.89645
10.05 44.7105 -19.98207
10.2 44.7081 -20.1105
10.35 44.7072 -20.15328
10.5 44.7054 -20.2389
10.65 44.7036 -20.32452
10.8 44.7027 -20.36733
10.95 44.7003 -20.49573
11.1 44.6976 -20.62416
11.25 44.6967 -20.66697
11.4 44.6961 -20.70978
11.55 44.6934 -20.83818
11.7 44.6952 -20.75259
-11.775 44.9328 -20.5818
-11.625 44.9427 -20.06814
-11.475 44.9478 -19.81128
-11.325 44.9502 -19.68285
-11.175 44.9619 -19.08357
-11.025 44.9727 -18.52707
-10.875 44.9811 -18.09903
-10.725 44.9844 -17.92779
-10.575 44.9868 -17.79936
-10.425 44.9892 -17.67096
-10.275 44.991 -17.58534
-10.125 44.9925 -17.49972
-9.975 44.9943 -17.4141
-9.825 44.9961 -17.32851
-9.674999 44.9976 -17.24289
-9.525001 44.9994 -17.15727
-9.375 45.0009 -17.07165
-9.225 45.0027 -16.98603
-9.075 45.0042 -16.90041
-8.925 45.006 -16.81482
-8.775 45.0075 -16.7292
-8.625 45.0093 -16.64358
-8.474999 45.0108 -16.55796
-8.325 45.0126 -16.47237
-8.175 45.0141 -16.38675
-8.025 45.015 -16.34394
-7.875 45.0159 -16.30113
-7.725 45.0177 -16.21551
-7.575 45.0183 -16.1727
-7.425 45.0192 -16.12989
-7.275 45.0201 -16.08711
-7.125 45.021 -16.0443
-6.975 45.0216 -16.00149
-6.825 45.0216 -16.00149
-6.675 45.0216 -16.00149
-6.525 45.0225 -15.95868
-6.375 45.0234 -15.91587
-6.225 45.0243 -15.87306
-6.075 45.0243 -15.87306
-5.925 45.0249 -15.83025
-5.775 45.0258 -15.78744
-5.625 45.0258 -15.78744
-5.475 45.0267 -15.74463
-5.325 45.0276 -15.70185
-5.175 45.0276 -15.70185
-5.025 45.0285 -15.65904
-4.875 45.0291 -15.61623
-4.725 45.0291 -15.61623
-4.575 45.03 -15.57342
-4.425 45.0318 -15.4878
-4.275 45.0333 -15.40218
-4.125 45.0342 -15.35937
-3.975 45.0357 -15.27378
-3.825 45.0384 -15.14535
-3.675 45.0399 -15.05973
-3.525 45.0426 -14.9313
-3.375 45.0465 -14.71728
-3.225 45.0492 -14.58885
-3.075 45.0525 -14.41764
-2.925 45.0567 -14.20359
-2.775 45.06 -14.03238
-2.625 45.0633 -13.86114
-2.475 45.0666 -13.68993
-2.325 45.0708 -13.47588
-2.175 45.0741 -13.30467
-2.025 45.0774 -13.13343
-1.875 45.0807 -12.96222
-1.725 45.084 -12.79098
-1.575 45.0882 -12.57693
-1.425 45.0915 -12.40572
-1.275 45.0939 -12.27729
-1.125 45.0966 -12.14889
-0.975 45.099 -12.02046
-0.825 45.1023 -11.84922
-0.675 45.1056 -11.67801
-0.525 45.1065 -11.6352
-0.375 45.108 -11.55423
-0.225 45.1101 -11.43279
-0.075 45.1116 -11.35182
0.075 45.1131 -11.27088
0.225 45.114 -11.23038
0.375 45.1131 -11.27088
0.525 45.111 -11.39232
0.675 45.1125 -11.31135
0.825 45.1116 -11.35182
0.975 45.1095 -11.47329
1.125 45.1071 -11.59473
1.275 45.0948 -12.23448
1.425 45.1005 -11.93484
1.575 45.0933 -12.3201
1.725 44.9661 -18.86955
1.875 44.967 -18.82674
2.025 44.967 -18.82674
2.175 44.967 -18.82674
2.325 44.9676 -18.78393
2.475 44.9676 -18.78393
2.625 44.9676 -18.78393
2.775 44.9685 -18.74112
2.925 44.9685 -18.74112
3.075 44.9685 -18.74112
3.225 44.9685 -18.74112
3.375 44.9685 -18.74112
3.525 44.9694 -18.69831
3.675 44.9685 -18.74112
3.825 44.9694 -18.69831
3.975 44.9694 -18.69831
4.125 44.9685 -18.74112
4.275 44.9685 -18.74112
4.425 44.9685 -18.74112
4.575 44.9685 -18.74112
4.725 44.9685 -18.74112
4.875 44.9676 -18.78393
5.025 44.9676 -18.78393
5.175 44.9676 -18.78393
5.325 44.967 -18.82674
5.475 44.967 -18.82674
5.625 44.967 -18.82674
5.775 44.9661 -18.86955
5.925 44.9661 -18.86955
6.075 44.9661 -18.86955
6.225 44.9652 -18.91233
6.375 44.9652 -18.91233
6.525 44.9652 -18.91233
6.675 44.9652 -18.91233
6.825 44.9643 -18.95514
6.975 44.9643 -18.95514
7.125 44.9637 -18.99795
7.275 44.9643 -18.95514
7.425 44.9637 -18.99795
7.575 44.9628 -19.04076
7.725 44.9619 -19.08357
7.875 44.961 -19.12638
8.025 44.9619 -19.08357
8.175 44.961 -19.12638
8.325 44.9595 -19.212
8.474999 44.9595 -19.212
8.625 44.9577 -19.29759
8.775 44.9568 -19.3404
8.925 44.9562 -19.38321
9.075 44.9562 -19.38321
9.225 44.9553 -19.42602
9.375 44.9535 -19.51164
9.525001 44.9529 -19.55445
9.674999 44.952 -19.59726
9.825 44.9502 -19.68285
9.975 44.9496 -19.72566
10.125 44.9487 -19.76847
10.275 44.9469 -19.85409
10.425 44.9454 -19.93971
10.575 44.9427 -20.06814
10.725 44.9421 -20.11092
10.875 44.9421 -20.11092
11.025 44.9403 -20.19654
11.175 44.9361 -20.41059
11.325 44.9379 -20.32497
11.475 44.9361 -20.41059
11.625 44.9352 -20.45337
11.775 44.9346 -20.49618
11.925 44.9337 -20.53899
12.075 44.9346 -20.49618
12.225 44.9352 -20.45337
12.375 44.9352 -20.45337
12.525 44.9337 -20.53899
12.675 44.9328 -20.5818
-10.95 45.2049 -18.5703
-10.8 45.2115 -18.22785
-10.65 45.2163 -17.97099
-10.5 45.2193 -17.79978
-10.35 45.2217 -17.67135
-10.2 45.2241 -17.54292
-10.05 45.2259 -17.4573
-9.9 45.2283 -17.3289
-9.75 45.2298 -17.24328
-9.6 45.2307 -17.20047
-9.45 45.2322 -17.11485
-9.3 45.234 -17.02923
-9.150001 45.2355 -16.94361
-9 45.237 -16.85802
-8.85 45.2388 -16.7724
-8.7 45.2403 -16.68678
-8.55 45.2418 -16.60116
-8.400001 45.2436 -16.51554
-8.25 45.2451 -16.42992
-8.1 45.246 -16.38714
-7.95 45.2475 -16.30152
-7.8 45.2484 -16.25871
-7.65 45.2493 -16.2159
-7.5 45.2499 -16.17309
-7.35 45.2508 -16.13028
-7.2 45.2508 -16.13028
-7.05 45.2517 -16.08747
-6.9 45.2517 -16.08747
-6.75 45.2523 -16.04466
-6.6 45.2523 -16.04466
-6.45 45.2532 -16.00185
-6.3 45.2541 -15.95904
-6.15 45.2541 -15.95904
-6 45.2547 -15.91623
-5.85 45.2556 -15.87342
-5.7 45.2556 -15.87342
-5.55 45.2565 -15.83064
-5.4 45.2571 -15.78783
-5.25 45.2571 -15.78783
-5.1 45.258 -15.74502
-4.95 45.2589 -15.70221
-4.8 45.2595 -15.6594
-4.65 45.2595 -15.6594
-4.5 45.2604 -15.61659
-4.35 45.2622 -15.53097
-4.2 45.2637 -15.44535
-4.05 45.2652 -15.35973
-3.9 45.267 -15.27414
-3.75 45.2694 -15.14571
-3.6 45.2718 -15.01728
-3.45 45.2757 -14.80326
-3.3 45.279 -14.63202
-3.15 45.2823 -14.46078
-3 45.2862 -14.24676
-2.85 45.2895 -14.07552
-2.7 45.2925 -13.90428
-2.55 45.2958 -13.73307
-2.4 45.3 -13.51902
-2.25 45.3048 -13.26219
-2.1 45.3078 -13.09095
-1.95 45.3102 -12.96252
-1.8 45.3153 -12.70569
-1.65 45.3177 -12.57726
-1.5 45.3216 -12.36321
-1.35 45.3249 -12.192
-1.2 45.3279 -12.02076
-1.05 45.3303 -11.89233
-0.9 45.3345 -11.67831
-0.75 45.3366 -11.55453
-0.6 45.3396 -11.39262
-0.45 45.3417 -11.27118
-0.3 45.3432 -11.19021
-0.15 45.3462 -11.0283
0 45.3477 -10.94733
0.15 45.3483 -10.90683
0.3 45.3483 -10.90683
0.45 45.3498 -10.82589
0.6 45.3492 -10.86636
0.75 45.3468 -10.9878
0.9 45.3462 -11.0283
1.05 45.3426 -11.23068
1.2 45.3417 -11.27118
1.35 45.3405 -11.35212
1.5 45.3366 -11.55453
1.65 45.336 -11.59503
1.8 45.1986 -18.91275
1.95 45.1992 -18.86997
2.1 45.1992 -18.86997
2.25 45.1992 -18.86997
2.4 45.2001 -18.82716
2.55 45.2001 -18.82716
2.7 45.201 -18.78435
2.85 45.201 -18.78435
3 45.201 -18.78435
3.15 45.2016 -18.74154
3.3 45.2016 -18.74154
3.45 45.2016 -18.74154
3.6 45.2025 -18.69873
3.75 45.2025 -18.69873
3.9 45.2025 -18.69873
4.05 45.2025 -18.69873
4.2 45.2025 -18.69873
4.35 45.2025 -18.69873
4.5 45.2025 -18.69873
4.65 45.2016 -18.74154
4.8 45.2025 -18.69873
4.95 45.2016 -18.74154
5.1 45.2016 -18.74154
5.25 45.2016 -18.74154
5.4 45.2016 -18.74154
5.55 45.201 -18.78435
5.7 45.201 -18.78435
5.85 45.201 -18.78435
6 45.201 -18.78435
6.15 45.201 -18.78435
6.3 45.2001 -18.82716
6.45 45.2001 -18.82716
6.6 45.2001 -18.82716
6.75 45.2001 -18.82716
6.9 45.1992 -18.86997
7.05 45.2001 -18.82716
7.2 45.1992 -18.86997
7.35 45.1992 -18.86997
7.5 45.1992 -18.86997
7.65 45.1986 -18.91275
7.8 45.1977 -18.95556
7.95 45.1968 -18.99837
8.1 45.1977 -18.95556
8.25 45.1968 -18.99837
8.400001 45.1962 -19.04118
8.55 45.1953 -19.08399
8.7 45.1944 -19.1268
8.85 45.1938 -19.16961
9 45.1929 -19.21242
9.150001 45.192 -19.25523
9.3 45.1914 -19.29804
9.45 45.1905 -19.34085
9.6 45.1896 -19.38366
9.75 45.1881 -19.46928
9.9 45.1863 -19.55487
10.05 45.1857 -19.59768
10.2 45.1848 -19.64049
10.35 45.1839 -19.6833
10.5 45.1833 -19.72611
10.65 45.1809 -19.85454
10.8 45.1809 -19.85454
10.95 45.1791 -19.94016
11.1 45.1791 -19.94016
11.25 45.1776 -20.02575
11.4 45.1761 -20.11137
11.55 45.1761 -20.11137
11.7 45.1737 -20.2398
11.85 45.1728 -20.28261
12 45.1719 -20.32542
12.15 45.1728 -20.28261
12.3 45.1728 -20.28261
12.45 45.1728 -20.28261
12.6 45.1719 -20.32542
12.75 45.1719 -20.32542
12.9 45.1728 -20.28261
13.05 45.1686 -20.49663
-10.725 45.441 -18.39948
-10.575 45.4467 -18.09984
-10.425 45.4512 -17.84298
-10.275 45.4542 -17.67174
-10.125 45.4566 -17.54331
-9.975 45.459 -17.41491
-9.825 45.4605 -17.32929
-9.674999 45.462 -17.24367
-9.525001 45.4638 -17.15805
-9.375 45.4653 -17.07243
-9.225 45.4668 -16.98681
-9.075 45.4683 -16.90119
-8.925 45.4692 -16.85841
-8.775 45.4716 -16.72998
-8.625 45.4722 -16.68717
-8.474999 45.4737 -16.60155
-8.325 45.4755 -16.51593
-8.175 45.477 -16.43031
-8.025 45.4776 -16.3875
-7.875 45.4785 -16.34469
-7.725 45.4794 -16.30188
-7.575 45.48 -16.25907
-7.425 45.4809 -16.21626
-7.275 45.4815 -16.17345
-7.125 45.4815 -16.17345
-6.975 45.4824 -16.13064
-6.825 45.4824 -16.13064
-6.675 45.483 -16.08786
-6.525 45.483 -16.08786
-6.375 45.483 -16.08786
-6.225 45.4839 -16.04505
-6.075 45.4839 -16.04505
-5.925 45.4848 -16.00224
-5.775 45.4854 -15.95943
-5.625 45.4854 -15.95943
-5.475 45.4863 -15.91662
-5.325 45.4863 -15.91662
-5.175 45.4869 -15.87381
-5.025 45.4878 -15.831
-4.875 45.4887 -15.78819
-4.725 45.4893 -15.74538
-4.575 45.4893 -15.74538
-4.425 45.4902 -15.70257
-4.275 45.4917 -15.61695
-4.125 45.4932 -15.53133
-3.975 45.4956 -15.40293
-3.825 45.4971 -15.31731
-3.675 45.4995 -15.18888
-3.525 45.5034 -14.97483
-3.375 45.5082 -14.71797
-3.225 45.5112 -14.54676
-3.075 45.5151 -14.33271
-2.925 45.519 -14.11866
-2.775 45.5229 -13.90464
-2.625 45.5259 -13.7334
-2.475 45.5298 -13.51935
-2.325 45.5337 -13.30533
-2.175 45.537 -13.13409
-2.025 45.5409 -12.92004
-1.875 45.5454 -12.66318
-1.725 45.5478 -12.53478
-1.575 45.5517 -12.32073
-1.425 45.5547 -12.14949
-1.275 45.5586 -11.93547
-1.125 45.5619 -11.76423
-0.975 45.5655 -11.55483
-0.825 45.5682 -11.39292
-0.675 45.5706 -11.27148
-0.525 45.5733 -11.10954
-0.375 45.576 -10.94763
-0.225 45.5781 -10.82619
-0.075 45.5802 -10.70475
0.075 45.5802 -10.70475
0.225 45.5817 -10.62378
0.375 45.5832 -10.54281
0.525 45.5844 -10.46184
0.675 45.5853 -10.42137
0.825 45.5844 -10.46184
0.975 45.5823 -10.58331
1.125 45.5817 -10.62378
1.275 45.5796 -10.74522
1.425 45.5781 -10.82619
1.575 45.5769 -10.90713
1.725 45.5691 -11.35242
1.875 45.4311 -18.95601
2.025 45.4311 -18.95601
2.175 45.4317 -18.9132
2.325 45.4317 -18.9132
2.475 45.4326 -18.87039
2.625 45.4326 -18.87039
2.775 45.4332 -18.82758
2.925 45.4341 -18.78477
3.075 45.4341 -18.78477
3.225 45.4341 -18.78477
3.375 45.435 -18.74196
3.525 45.435 -18.74196
3.675 45.4356 -18.69915
3.825 45.4356 -18.69915
3.975 45.4356 -18.69915
4.125 45.4356 -18.69915
4.275 45.4356 -18.69915
4.425 45.4356 -18.69915
4.575 45.4356 -18.69915
4.725 45.4356 -18.69915
4.875 45.4365 -18.65634
5.025 45.4356 -18.69915
5.175 45.4356 -18.69915
5.325 45.4356 -18.69915
5.475 45.435 -18.74196
5.625 45.4356 -18.69915
5.775 45.435 -18.74196
5.925 45.435 -18.74196
6.075 45.435 -18.74196
6.225 45.435 -18.74196
6.375 45.435 -18.74196
6.525 45.4341 -18.78477
6.675 45.435 -18.74196
6.825 45.4341 -18.78477
6.975 45.4341 -18.78477
7.125 45.4341 -18.78477
7.275 45.4341 -18.78477
7.425 45.4341 -18.78477
7.575 45.4332 -18.82758
7.725 45.4332 -18.82758
7.875 45.4332 -18.82758
8.025 45.4332 -18.82758
8.175 45.4326 -18.87039
8.325 45.4326 -18.87039
8.474999 45.4317 -18.9132
8.625 45.4311 -18.95601
8.775 45.4302 -18.99882
8.925 45.4302 -18.99882
9.075 45.4287 -19.08441
9.225 45.4278 -19.12722
9.375 45.4272 -19.17003
9.525001 45.4263 -19.21284
9.674999 45.4248 -19.29846
9.825 45.4239 -19.34127
9.975 45.4233 -19.38408
10.125 45.4224 -19.42689
10.275 45.4209 -19.51251
10.425 45.4209 -19.51251
10.575 45.4194 -19.59813
10.725 45.4185 -19.64094
10.875 45.4179 -19.68375
11.025 45.417 -19.72653
11.175 45.417 -19.72653
11.325 45.4146 -19.85496
11.475 45.414 -19.89777
11.625 45.4122 -19.98339
11.775 45.4116 -20.0262
11.925 45.4107 -20.06901
12.075 45.4092 -20.15463
12.225 45.4092 -20.15463
12.375 45.4092 -20.15463
12.525 45.4083 -20.19744
12.675 45.4083 -20.19744
12.825 45.4092 -20.15463
12.975 45.4101 -20.11182
13.125 45.4101 -20.11182
13.275 45.4107 -20.06901
13.425 45.4092 -20.15463
13.575 45.4068 -20.28306
13.725 45.4023 -20.53989
-10.5 45.6711 -18.57114
-10.35 45.6822 -17.92902
-10.2 45.6855 -17.75778
-10.05 45.6876 -17.62935
-9.9 45.6915 -17.4153
-9.75 45.6921 -17.37249
-9.6 45.6936 -17.28687
-9.45 45.6951 -17.20125
-9.3 45.6975 -17.07282
-9.150001 45.699 -16.9872
-9 45.7005 -16.90158
-8.85 45.702 -16.81599
-8.7 45.7026 -16.77318
-8.55 45.7041 -16.68756
-8.400001 45.705 -16.64475
-8.25 45.7065 -16.55913
-8.1 45.708 -16.47351
-7.95 45.7086 -16.4307
-7.8 45.7086 -16.4307
-7.65 45.7095 -16.38789
-7.5 45.7101 -16.34508
-7.35 45.711 -16.30227
-7.2 45.7116 -16.25946
-7.05 45.7116 -16.25946
-6.9 45.7116 -16.25946
-6.75 45.7125 -16.21665
-6.6 45.7125 -16.21665
-6.45 45.7125 -16.21665
-6.3 45.7131 -16.17384
-6.15 45.7131 -16.17384
-6 45.714 -16.13103
-5.85 45.714 -16.13103
-5.7 45.7146 -16.08822
-5.55 45.7155 -16.04541
-5.4 45.7155 -16.04541
-5.25 45.7161 -16.0026
-5.1 45.717 -15.95979
-4.95 45.717 -15.95979
-4.8 45.7176 -15.91698
-4.65 45.7176 -15.91698
-4.5 45.7185 -15.87417
-4.35 45.72 -15.78855
-4.2 45.7215 -15.70293
-4.05 45.7221 -15.66012
-3.9 45.7251 -15.48888
-3.75 45.7275 -15.36048
-3.6 45.7305 -15.18924
-3.45 45.7359 -14.88957
-3.3 45.7395 -14.67552
-3.15 45.7434 -14.46147
-3 45.7485 -14.16183
-2.85 45.7515 -13.99059
-2.7 45.7554 -13.77654
-2.55 45.759 -13.56249
-2.4 45.7629 -13.34844
-2.25 45.7665 -13.13442
-2.1 45.7704 -12.92037
-1.95 45.7749 -12.66351
-1.8 45.7779 -12.49227
-1.65 45.7809 -12.32103
-1.5 45.7854 -12.0642
-1.35 45.7884 -11.89296
-1.2 45.7923 -11.67891
-1.05 45.7956 -11.47419
-0.9 45.7983 -11.31225
-0.75 45.801 -11.15034
-0.6 45.8046 -10.94793
-0.45 45.8079 -10.74552
-0.3 45.81 -10.62408
-0.15 45.8127 -10.46214
0 45.8139 -10.3812
0.15 45.816 -10.25976
0.3 45.8166 -10.21926
0.45 45.8187 -10.09782
0.6 45.8187 -10.09782
0.75 45.8202 -10.01685
0.9 45.8187 -10.09782
1.05 45.8166 -10.21926
1.2 45.8181 -10.13832
1.35 45.816 -10.25976
1.5 45.8139 -10.3812
1.65 45.8127 -10.46214
1.8 45.8139 -10.3812
1.95 45.7998 -11.23128
2.1 45.6636 -18.99924
2.25 45.6642 -18.95643
2.4 45.6642 -18.95643
2.55 45.6651 -18.91362
2.7 45.6657 -18.87081
2.85 45.6657 -18.87081
3 45.6666 -18.828
3.15 45.6666 -18.828
3.3 45.6672 -18.78519
3.45 45.6681 -18.74238
3.6 45.6681 -18.74238
3.75 45.6681 -18.74238
3.9 45.6687 -18.69957
4.05 45.6687 -18.69957
4.2 45.6687 -18.69957
4.35 45.6687 -18.69957
4.5 45.6687 -18.69957
4.65 45.6696 -18.65676
4.8 45.6696 -18.65676
4.95 45.6696 -18.65676
5.1 45.6696 -18.65676
5.25 45.6702 -18.61395
5.4 45.6696 -18.65676
5.55 45.6696 -18.65676
5.7 45.6696 -18.65676
5.85 45.6687 -18.69957
6 45.6696 -18.65676
6.15 45.6696 -18.65676
6.3 45.6687 -18.69957
6.45 45.6687 -18.69957
6.6 45.6687 -18.69957
6.75 45.6687 -18.69957
6.9 45.6687 -18.69957
7.05 45.6681 -18.74238
7.2 45.6687 -18.69957
7.35 45.6687 -18.69957
7.5 45.6681 -18.74238
7.65 45.6681 -18.74238
7.8 45.6681 -18.74238
7.95 45.6681 -18.74238
8.1 45.6672 -18.78519
8.25 45.6672 -18.78519
8.400001 45.6672 -18.78519
8.55 45.6666 -18.828
8.7 45.6666 -18.828
8.85 45.6657 -18.87081
9 45.6657 -18.87081
9.150001 45.6642 -18.95643
9.3 45.6636 -18.99924
9.45 45.6627 -19.04202
9.6 45.6621 -19.08483
9.75 45.6612 -19.12767
9.9 45.6606 -19.17048
10.05 45.6597 -19.21326
10.2 45.6591 -19.25607
10.35 45.6582 -19.29888
10.5 45.6567 -19.3845
10.65 45.6561 -19.42731
10.8 45.6546 -19.51293
10.95 45.6537 -19.55574
11.1 45.6531 -19.59855
11.25 45.6522 -19.64136
11.4 45.6516 -19.68417
11.55 45.6501 -19.76979
11.7 45.6492 -19.8126
11.85 45.6486 -19.85541
12 45.6471 -19.94103
12.15 45.6462 -19.98384
12.3 45.6462 -19.98384
12.45 45.6456 -20.02665
12.6 45.6447 -20.06946
12.75 45.6447 -20.06946
12.9 45.6456 -20.02665
13.05 45.6462 -19.98384
13.2 45.6462 -19.98384
13.35 45.6471 -19.94103
13.5 45.6471 -19.94103
13.65 45.6456 -20.02665
13.8 45.6456 -20.02665
13.95 45.6456 -20.02665
14.1 45.6456 -20.02665
14.25 45.6441 -20.11227
-10.125 45.9105 -18.18627
-9.975 45.9195 -17.67255
-9.825 45.9216 -17.54412
-9.674999 45.9237 -17.41569
-9.525001 45.9252 -17.33007
-9.375 45.9267 -17.24445
-9.225 45.9282 -17.15883
-9.075 45.9294 -17.07321
-8.925 45.9309 -16.98759
-8.775 45.9324 -16.90197
-8.625 45.9339 -16.81635
-8.474999 45.9345 -16.77354
-8.325 45.9354 -16.73073
-8.175 45.9369 -16.64511
-8.025 45.9375 -16.6023
-7.875 45.9384 -16.55952
-7.725 45.939 -16.51668
-7.575 45.939 -16.51668
-7.425 45.9396 -16.47387
-7.275 45.9396 -16.47387
-7.125 45.9411 -16.38828
-6.975 45.942 -16.34547
-6.825 45.942 -16.34547
-6.675 45.942 -16.34547
-6.525 45.942 -16.34547
-6.375 45.9426 -16.30263
-6.225 45.9432 -16.25985
-6.075 45.9426 -16.30263
-5.925 45.9432 -16.25985
-5.775 45.9432 -16.25985
-5.625 45.9441 -16.21704
-5.475 45.9447 -16.17423
-5.325 45.9447 -16.17423
-5.175 45.9447 -16.17423
-5.025 45.9456 -16.13142
-4.875 45.9456 -16.13142
-4.725 45.9462 -16.08861
-4.575 45.9471 -16.0458
-4.425 45.9477 -16.00299
-4.275 45.9492 -15.91737
-4.125 45.9498 -15.87456
-3.975 45.9522 -15.74613
-3.825 45.9543 -15.6177
-3.675 45.957 -15.44646
-3.525 45.96 -15.27522
-3.375 45.9666 -14.88993
-3.225 45.9717 -14.59026
-3.075 45.9759 -14.3334
-2.925 45.9798 -14.11935
-2.775 45.9834 -13.9053
-2.625 45.9876 -13.64844
-2.475 45.9912 -13.43439
-2.325 45.9957 -13.17753
-2.175 45.9999 -12.92067
-2.025 46.0035 -12.70665
-1.875 46.008 -12.44979
-1.725 46.011 -12.27855
-1.575 46.0152 -12.02169
-1.425 46.0182 -11.85045
-1.275 46.0218 -11.6364
-1.125 46.0251 -11.43399
-0.975 46.0284 -11.23158
-0.825 46.0317 -11.02917
-0.675 46.0347 -10.82679
-0.525 46.0374 -10.66485
-0.375 46.0407 -10.46244
-0.225 46.0434 -10.30053
-0.075 46.0446 -10.21956
0.075 46.0479 -10.01715
0.225 46.05 -9.89571
0.375 46.0518 -9.77427
0.525 46.0512 -9.81474
0.675 46.053 -9.6933
0.825 46.0539 -9.65283
0.975 46.0563 -9.490891
1.125 46.0557 -9.531389
1.275 46.0557 -9.531389
1.425 46.0524 -9.73377
1.575 46.0485 -9.97668
1.725 46.0473 -10.05762
1.875 46.0452 -10.17909
2.025 45.894 -19.1709
2.175 46.0356 -10.78629
2.325 46.0374 -10.66485
2.475 45.8961 -19.04247
2.625 45.8967 -18.99966
2.775 45.8976 -18.95685
2.925 45.8982 -18.91404
3.075 45.8991 -18.87123
3.225 45.8991 -18.87123
3.375 45.8997 -18.82842
3.525 45.9006 -18.78561
3.675 45.9006 -18.78561
3.825 45.9012 -18.7428
3.975 45.9012 -18.7428
4.125 45.9018 -18.69999
4.275 45.9018 -18.69999
4.425 45.9018 -18.69999
4.575 45.9027 -18.65718
4.725 45.9027 -18.65718
4.875 45.9033 -18.61437
5.025 45.9027 -18.65718
5.175 45.9033 -18.61437
5.325 45.9033 -18.61437
5.475 45.9033 -18.61437
5.625 45.9033 -18.61437
5.775 45.9033 -18.61437
5.925 45.9033 -18.61437
6.075 45.9033 -18.61437
6.225 45.9033 -18.61437
6.375 45.9033 -18.61437
6.525 45.9033 -18.61437
6.675 45.9033 -18.61437
6.825 45.9027 -18.65718
6.975 45.9027 -18.65718
7.125 45.9027 -18.65718
7.275 45.9027 -18.65718
7.425 45.9027 -18.65718
7.575 45.9027 -18.65718
7.725 45.9027 -18.65718
7.875 45.9027 -18.65718
8.025 45.9018 -18.69999
8.175 45.9018 -18.69999
8.325 45.9018 -18.69999
8.474999 45.9018 -18.69999
8.625 45.9012 -18.7428
8.775 45.9006 -18.78561
8.925 45.9012 -18.7428
9.075 45.9006 -18.78561
9.225 45.8997 -18.82842
9.375 45.8991 -18.87123
9.525001 45.8982 -18.91404
9.674999 45.8982 -18.91404
9.825 45.8967 -18.99966
9.975 45.8961 -19.04247
10.125 45.8955 -19.08528
10.275 45.8946 -19.12809
10.425 45.894 -19.1709
10.575 45.8925 -19.25652
10.725 45.8919 -19.29933
10.875 45.891 -19.34214
11.025 45.8904 -19.38495
11.175 45.8889 -19.47057
11.325 45.888 -19.51338
11.475 45.8874 -19.55619
11.625 45.8874 -19.55619
11.775 45.8859 -19.64181
11.925 45.8853 -19.68462
12.075 45.8838 -19.77024
12.225 45.8838 -19.77024
12.375 45.8829 -19.81302
12.525 45.8829 -19.81302
12.675 45.8823 -19.85583
12.825 45.8817 -19.89867
12.975 45.8823 -19.85583
13.125 45.8817 -19.89867
13.275 45.8823 -19.85583
13.425 45.8823 -19.85583
13.575 45.8817 -19.89867
13.725 45.8817 -19.89867
13.875 45.8817 -19.89867
14.025 45.8817 -19.89867
14.175 45.8817 -19.89867
14.325 45.8808 -19.94148
14.475 45.8802 -19.98426
14.625 45.8802 -19.98426
14.775 45.8793 -20.02707
-9.6 46.152 -17.67294
-9.45 46.1553 -17.45892
-9.3 46.1562 -17.41608
-9.150001 46.1568 -17.37327
-9 46.1595 -17.20203
-8.85 46.161 -17.11641
-8.7 46.1631 -16.98798
-8.55 46.1625 -17.03079
-8.400001 46.1637 -16.94517
-8.25 46.1658 -16.81674
-8.1 46.1667 -16.77393
-7.95 46.1667 -16.77393
-7.8 46.1673 -16.73112
-7.65 46.1679 -16.68831
-7.5 46.1688 -16.6455
-7.35 46.1688 -16.6455
-7.2 46.1694 -16.60269
-7.05 46.17 -16.55988
-6.9 46.1709 -16.51707
-6.75 46.1709 -16.51707
-6.6 46.1709 -16.51707
-6.45 46.1715 -16.47426
-6.3 46.1721 -16.43145
-6.15 46.1721 -16.43145
-6 46.1721 -16.43145
-5.85 46.173 -16.38864
-5.7 46.173 -16.38864
-5.55 46.173 -16.38864
-5.4 46.173 -16.38864
-5.25 46.1736 -16.34583
-5.1 46.1742 -16.30302
-4.95 46.1736 -16.34583
-4.8 46.1742 -16.30302
-4.65 46.1751 -16.26021
-4.5 46.1757 -16.2174
-4.35 46.1763 -16.17459
-4.2 46.1778 -16.08897
-4.05 46.1799 -15.96054
-3.9 46.1814 -15.87492
-3.75 46.1826 -15.7893
-3.6 46.1856 -15.61806
-3.45 46.1931 -15.14715
-3.3 46.1952 -15.01872
-3.15 46.2045 -14.46219
-3 46.2078 -14.24814
-2.85 46.2099 -14.11968
-2.7 46.2141 -13.86282
-2.55 46.2183 -13.60596
-2.4 46.224 -13.26348
-2.25 46.2282 -13.00662
-2.1 46.2324 -12.74976
-1.95 46.2372 -12.45009
-1.8 46.2408 -12.23604
-1.65 46.245 -11.97918
-1.5 46.2477 -11.80794
-1.35 46.2513 -11.59623
-1.2 46.2543 -11.39382
