2118
19.2485 26.364 15.919
19.746 26.377 16.043
20.2415 26.387 16.132
20.7485 26.395 16.2385
21.249 26.399 16.3075
21.7545 26.3915 16.2745
22.24 26.324 16.2295
8.754 57.006 18.655
12.7395 61.429 10.962
12.1685 61.8105 11.463
-14.1075 62.558 1.82
-1.3195 65.5635 7.941
-31.2405 74.896 18.3915
-30.737 74.892 18.2035
-43.974 51.144 4.2
-22.742 82.6 2.408
9.297 62.774 12.545
-37.282 81.0955 -6.6255
-10.015 63.746 4.0465
-35.984 73.681 20.9525
-35.6945 80.2835 -4.007
-33.1755 77.506 14.3835
-34.2345 76.8715 16.239
7.279 62.753 14.67
-3.3095 65.042 10.8275
-31.247 77.85149 4.896
-32.6845 75.6165 18.307
-37.256 77.6535 2.7455
-11.238 61.7435 12.404
-35.56 81.788 -6.8735
-7.6815 64.2715 3.4525
-28.7475 76.8545 14.5095
-11.904 62.793 1.174
-22.2645 27.388 19.4075
-21.751 27.414 19.6395
-21.253 27.424 19.7765
-20.752 27.4285 19.8465
-20.249 27.4295 19.832
-19.7465 27.4195 19.797
-19.243 27.415 19.734
-18.74 27.402 19.6085
-18.243 27.3935 19.4595
-17.734 27.3635 19.2265
-17.2455 27.36 19.0695
-16.7385 27.3365 18.835
-16.2355 27.319 18.6595
-15.7405 27.311 18.511
-15.248 27.2905 18.302
-14.7525 27.278 18.148
-14.252 27.2815 18.1875
-5.3515 64.6105 10.8165
-4.7765 64.691 11.023
-13.8085 62.7355 7.794
-36.2715 77.075 15.522
-39.3315 77.7435 10.0475
-39.6635 84.6765 -19.5125
-38.4215 48.7685 -5.7925
-6.417 64.328 1.7465
-0.983 65.544 3.763
1.2815 65.80051 4.603
6.7175 64.986 6.595
-8.2645 27.9435 25.42
-7.7445 27.9725 25.5585
-7.246 27.972 25.5615
-6.7395 27.983 25.6045
-6.245 28.003 25.8665
-5.7445 28.0285 26.165
-5.2645 28.031 26.3755
-4.7395 28.072 26.506
-4.2525 28.063 26.602
-3.7535 28.0715 26.7325
-3.25 28.095 26.8965
-2.7515 28.099 26.9665
-2.251 28.101 26.9675
-1.7475 28.109 27.005
-1.252 28.12 27.147
-0.7475 28.1375 27.304
-0.248 28.142 27.383
0.251 28.1375 27.308
0.7545 28.111 27.083
1.2625 28.08 26.858
1.7585 28.073 26.744
2.256 28.0685 26.6735
2.753 28.065 26.6015
3.256 28.0515 26.4965
3.752 28.05 26.4155
4.2505 28.051 26.4085
4.7555 28.042 26.371
5.2475 28.046 26.339
2.251 61.1995 17.4315
1.7485 61.2225 17.3995
1.1715 61.189 17.509
20.3775 42.2015 -5.3845
5.186 65.439 8.172
-16.7515 56.9295 17.0715
1.242 57.079 20.5005
-18.7435 57.6275 16.465
-40.7595 62.992 26.1025
-1.8665 65.52551 7.7405
22.6145 46.595 5.079
2.7375 56.3785 20.5045
3.2325 56.37 20.3665
11.443 61.1705 14.0485
15.827 58.677 11.4075
-27.3535 76.9305 9.2045
-10.402 62.987 10.48
2.087 63.947 14.2305
-1.9085 65.5675 6.2905
4.227 65.517 9.247999
-14.51 62.7225 3.1305
-10.285 63.696 4.676
-13.772 89.3545 -3.37
-39.233 70.7015 23.408
18.76 27.045 15.716
19.2495 27.0585 15.806
19.746 27.0715 15.9225
20.2455 27.084 16.047
20.745 27.091 16.12
21.2465 27.098 16.1875
21.7505 27.1 16.246
22.255 27.0975 16.2435
22.769 27.0325 16.1885
-38.2485 69.32 24.53
-13.671 46.5715 -13.7945
-15.806 59.7755 -5.221
-23.7085 78.9525 4.3395
-10.2275 43.999 27.731
9.8715 62.981 11.3225
-41.7685 75.567 15.528
19.5845 50.6245 -2.9
-38.775 86.369 -19.769
15.741 57.2155 14.2295
14.4875 58.333 14.4715
-30.479 71.4635 -2.29
-36.879 80.0895 -4.42
-8.7895 64.0765 4.4955
-33.0205 78.144 10.0645
-37.901 77.06651 14.966
-3.858 65.008 10.6305
-30.6965 77.8885 5.0905
-4.5235 64.6045 11.841
13.541 57.009 -4.3765
-18.298 63.807 6.8855
-8.2775 64.126 3.232
0.6845 64.3425 13.7215
-10.654 63.179 1.632
-35.3085 82.4295 -8.2175
-22.2505 28.1045 19.5085
-21.76 28.12 19.727
-21.254 28.1395 19.901
-20.752 28.1435 19.9685
-20.25 28.1395 19.9875
-19.7475 28.141 19.9745
-19.2465 28.138 19.8985
-18.7445 28.125 19.7765
-18.2475 28.1155 19.6355
-17.741 28.0895 19.4005
-17.238 28.066 19.151
-16.742 28.051 18.95
-16.244 28.0325 18.7575
-15.7475 28.017 18.557
-15.2445 27.992 18.3245
-14.749 27.981 18.2105
-14.2565 27.982 18.208
-13.7555 28.0115 18.504
-12.3815 61.564 11.9895
7.4605 63.817 12.5815
-40.9095 77.1025 11.7145
-47.132 63.4605 10.6275
-38.8835 48.7895 -5.278
-5.7545 64.5365 1.994
-1.5555 65.4635 3.549
1.828 65.82301 4.804
6.2775 65.159 6.433
9.7665 63.6445 7.7175
-8.2705 28.667 25.5855
-7.748 28.6785 25.6895
-7.237 28.695 25.721
-18.186 88.0355 -3.4175
-5.753 28.7555 26.537
-5.2395 28.787 26.693
-4.7565 28.7765 26.852
-4.2465 28.8175 27.125
-3.7485 28.8215 27.1895
-3.2475 28.829 27.168
-2.7485 28.8075 27.081
-2.2455 28.7835 26.945
-1.749 28.7925 26.893
-1.2575 28.798 27.001
-0.7585 28.8105 27.1145
-0.254 28.8155 27.238
0.2505 28.8365 27.294
0.7505 28.824 27.1835
1.251 28.8045 27.0105
1.756 28.785 26.9115
2.2505 28.7875 26.829
2.752 28.774 26.7165
3.2535 28.7665 26.6625
3.7555 28.754 26.5495
4.254 28.7505 26.483
4.761 28.738 26.383
5.2555 28.7355 26.302
-15.756 57.6475 16.721
-8.7465 61.119 15.596
-8.238 61.1175 15.9655
-34.147 81.1875 -26.9865
-12.081 62.939 8.4085
-17.2525 56.937 16.9635
-17.749 56.924 16.947
-15.2525 57.6355 16.766
2.752 61.1985 17.49
16.984 57.368 11.132
-17.1645 87.74551 -1.602
-32.1185 79.2775 -7.0375
-32.4385 79.6515 -7.1545
-9.7455 60.4305 16.228
-45.7765 57.668 19.6425
-31.907 77.595 -19.8055
20.0485 52.783 1.0905
-25.924 73.8995 8.705
12.957 51.0495 20.5735
-18.725 63.874 1.572
-8.7465 60.4585 16.613
-30.758 75.57 17.7755
20.399 52.823 4.582
-46.2005 62.782 15.131
-39.2515 63.7215 26.641
18.7715 27.7465 15.715
19.265 27.749 15.684
19.75 27.7665 15.8045
20.247 27.779 15.923
20.748 27.7865 16.0315
21.245 27.7925 16.059
21.748 27.796 16.1195
22.2515 27.7995 16.175
22.754 27.797 16.165
23.286 27.7295 16.046
-38.749 66.544 26.0795
-39.245 66.5325 26.0545
-39.7485 66.53899 25.953
-38.7725 34.4025 5.8925
-37.81 83.3645 -11.6885
-19.1955 63.9915 1.4025
9.432 63.1735 11.1655
4.7335 56.339 19.794
21.2075 50.743 7.0795
-4.7295 87.854 -12.8735
-11.282 92.364 -6.1495
-37.5465 79.7705 -4.6815
-3.5885 49.9905 24.2635
-37.1945 43.711 19.957
-3.56 63.1395 15.1235
-33.261 78.1275 10.7035
-1.196 50.003 24.3635
-30.099 76.08749 16.9725
-8.934 63.892 2.9915
3.047 63.7215 14.5725
-9.9235 63.4395 1.891
-10.765 63.673 5.953
-40.287 77.302 11.9255
-21.753 28.8355 19.8335
-21.252 28.853 20.024
-20.7525 28.8565 20.098
-20.248 28.866 20.1405
-19.7485 28.856 20.1015
-19.247 28.8505 20.0255
-18.7435 28.836 19.911
-18.248 28.831 19.7615
-17.745 28.8095 19.5745
-17.2405 28.7845 19.3355
-16.748 28.7735 19.127
-16.2565 28.7595 18.9145
-15.7455 28.7305 18.692
-15.244 28.7125 18.5075
-14.7485 28.7035 18.361
-14.25 28.697 18.3045
-13.758 28.718 18.5745
-11.5835 62.497 -0.1665
-12.116 62.397 -0.3505
-15.435 89.2575 -6.5
-39.3105 48.8175 -4.7835
-5.1315 64.7335 2.2245
-2.1585 65.347 3.327
2.372 65.844 5.006
5.836 65.33701 6.273
10.199 63.4435 7.8775
-8.2495 29.382 25.753
-7.745 29.393 25.8665
-7.254 29.394 25.9425
-6.2575 29.464 26.727
-5.739 29.499 26.8755
-5.2565 29.496 27.0915
-4.7525 29.5395 27.421
-4.246 29.554 27.5425
-3.7505 29.536 27.509
-3.247 29.525 27.4655
-2.747 29.5335 27.446
-2.2485 29.5015 27.1615
-1.752 29.479 27.009
-1.247 29.5065 27.065
-0.7535 29.508 27.225
-0.2495 29.5355 27.4415
0.2505 29.545 27.489
0.75 29.5565 27.538
1.251 29.5485 27.554
1.7525 29.5415 27.496
2.249 29.539 27.3615
2.742 29.5425 27.2795
3.2465 29.507 26.996
3.7495 29.478 26.764
4.823 29.45 26.351
5.328 29.4585 26.223
-6.244 60.499 17.746
-6.746 60.4945 17.5605
-7.2425 60.4805 17.3645
-7.7505 60.4825 17.063
-8.25 60.482 16.8185
-18.2455 56.9445 16.9145
-18.74 56.9465 17.035
-9.747001 61.099 15.1535
3.251 61.213 17.508
3.7495 61.202 17.553
4.2475 61.196 17.546
-7.253 57.066 19.7365
16.7915 57.4555 11.7725
-17.687 62.964 -0.9815
-20.027 64.01801 6.997
-33.051 77.8635 12.964
-0.79 65.6785 6.701
2.735 65.72701 8.7045
-13.368 62.8775 3.5515
-5.31 65.05251 6.4855
-5.9095 64.912 6.2655
19.7825 49.9345 -2.9035
5.179 65.294 9.596001
-17.7105 87.725 -1.814
-18.7405 84.87399 0.7855
19.281 28.444 15.5985
19.76 28.451 15.57
20.2485 28.469 15.701
20.7425 28.484 15.826
21.247 28.485 15.916
21.746 28.492 15.9875
22.249 28.4955 16.0485
22.7535 28.4965 16.06
23.2805 28.423 16.0385
23.7595 28.42 15.846
22.158 47.983 7.0805
22.2465 47.978 2.589
-40.2445 66.5305 25.7635
-40.726 66.51 25.5555
-39.7605 61.5555 25.629
-43.0385 55.1775 3.676
19.732 53.5055 9.0855
-31.0025 76.869 -13.2915
-37.2465 63.718 26.3955
7.294 62.2065 15.398
-2.212 65.0725 11.224
-39.7625 47.6965 17.4635
-38.4115 46.3845 18.9835
-14.201 59.923 14.3355
-4.0785 63.151 14.9275
-27.2905 76.2335 12.866
-35.638 76.7245 16.507
-30.509 76.3345 16.8285
-9.531 63.7515 2.7725
-35.0545 78.006 0.6105
-11.2795 62.991 1.402
6.1435 62.4765 15.6985
-38.4845 77.60699 12.532
-21.762 29.5435 19.9135
-21.2525 29.561 20.088
-20.7535 29.564 20.1605
-20.2495 29.573 20.211
-19.7485 29.5815 20.2585
-19.245 29.5645 20.2405
-18.748 29.5665 20.1415
-18.249 29.552 19.9485
-17.741 29.528 19.7795
-17.239 29.511 19.592
-16.735 29.486 19.346
-16.2505 29.4775 19.1225
-15.7695 29.4525 18.884
-15.2515 29.4365 18.6745
-14.749 29.4115 18.438
-14.252 29.403 18.3835
-13.758 29.427 18.6375
-13.309 29.461 19.1255
-7.037 64.1155 1.519
-39.7845 48.844 -4.28
-4.533 64.874 2.446
-2.73 65.259 3.1145
2.885 65.81799 5.192
5.3715 65.46799 6.103
10.61 63.2035 8.031
14.448 60.278 9.462
-8.244499 30.1085 26.0465
-7.749 30.124 26.232
-6.249 30.1985 27.076
-5.746 30.2165 27.2495
-5.245 30.249 27.5405
-4.7505 30.26 27.7405
-4.259 30.249 27.774
-3.7465 30.28 27.829
-3.248 30.267 27.8685
-2.7475 30.264 27.799
-2.249 30.243 27.558
-1.745 30.2645 27.359
-1.224 30.293 27.682
-0.741 30.3035 27.9285
-0.246 30.2945 28.0205
0.253 30.298 28.01
0.751 30.292 28.025
1.252 30.2855 28.042
1.749 30.286 27.967
2.248 30.2775 27.839
2.7655 30.1995 27.704
-7.8045 64.387 5.579
-7.7505 59.8095 17.8885
0.2465 59.826 19.046
-47.11 60.0585 10.145
-11.745 60.3735 15.022
-11.244 60.3885 15.3395
-10.7485 60.409 15.5985
-22.7505 57.6205 16.688
-23.7465 57.646 16.595
-19.2445 56.9465 17.2145
-19.7415 56.9655 17.298
-10.2335 61.0525 14.8805
-10.7385 61.051 14.571
-11.2305 61.015 14.2425
-37.25 71.3975 23.0795
-26.8145 72.3385 12.1985
10.8335 62.917 10.252
-40.844 77.4405 8.792
6.3215 65.118 7.875
18.6675 54.1595 12.5935
-31.005 77.64 -15.7935
-22.7805 62.6525 -4.23
20.804 50.709 0.091
21.338 50.7525 5.0805
-34.99 68.494 -3.9795
-42.184 57.1495 0.142
-11.7645 79.598 -1.137
19.784 29.136 15.35
20.261 29.142 15.3755
20.749 29.163 15.5595
21.246 29.173 15.674
21.7445 29.185 15.8025
22.2485 29.1905 15.915
22.7505 29.193 15.969
23.2535 29.186 15.9125
23.7595 29.176 15.797
24.2415 29.107 15.5825
-42.993 70.242 2.0895
22.104 46.572 10.58
-31.619 85.4905 -24.7905
-36.85 78.1345 7.257
-41.1695 55.7755 22.188
-22.244 83.35799 1.8975
-44.803 63.3755 2.1475
-31.177 76.0745 -12.7915
-36.7665 82.58801 -8.864
-46.218 59.372 13.1575
5.2505 56.341 19.592
5.7485 56.3295 19.455
-28.75 29.413 10.63
6.248 56.324 19.3865
6.7485 56.3175 19.375
-17.684 61.434 13.046
-35.5345 77.549 14.287
-5.0375 64.8035 10.209
-27.0715 75.6685 12.9615
10.7895 60.222 15.968
-40.0695 77.1935 4.6785
-10.187 63.514 2.532
-4.116 63.664 14.182
-12.5615 62.576 0.9285001
-38.442 77.822 11.0825
-25.1435 66.898 13.92
-21.752 30.259 20.021
-21.2505 30.2755 20.2105
-20.7535 30.2845 20.3495
-20.2525 30.288 20.4225
-19.7485 30.307 20.513
-19.246 30.292 20.4885
-18.7465 30.29 20.4075
-18.2485 30.282 20.269
-17.7495 30.2655 20.0765
-17.2415 30.2325 19.7765
-16.7455 30.2065 19.4495
-16.251 30.1925 19.247
-15.7485 30.169 19
-15.249 30.151 18.8055
-14.7485 30.1315 18.6305
-14.2465 30.129 18.5475
-13.7455 30.1455 18.7415
-13.2925 30.183 19.2975
-3.932 65.0045 2.668
-3.332 65.1385 2.8915
-0.4095 65.617 3.9755
3.9125 65.7435 5.567
8.488999 64.269 7.249
11.0215 62.966 8.183499
14.0815 60.609 9.3255
16.186 58.479 10.1195
-3.2295 64.47649 13.038
-8.231 30.833 26.2685
-7.732 30.861 26.5655
-6.7555 30.8935 27.0885
-6.246 30.9215 27.3105
-5.7415 30.9375 27.4805
-5.245 30.9575 27.7245
-4.746 30.9745 27.906
-4.252 30.976 27.9865
-3.751 30.9815 28.05
-3.2485 30.978 28.062
-2.748 30.973 27.9945
-2.247 30.981 27.8855
-1.748 30.9705 27.8425
-1.2465 30.9885 28.018
-0.747 31.003 28.206
-0.248 31.0065 28.269
0.2505 31.0035 28.285
0.7515 30.9985 28.3055
1.2505 31.012 28.3305
1.753 30.9985 28.225
2.2555 30.9855 28.114
2.763 30.98 27.9785
3.302 30.889 27.66
16.874 51.048 17.4675
-7.2475 59.8115 18.071
-0.2495 59.8525 19.077
-0.7475 59.8455 19.067
-1.2465 59.839 18.999
-1.747 59.848 18.951
-2.245 59.8395 18.9385
-2.7415 59.8245 18.9205
-3.2435 59.8285 18.866
-3.748 59.8445 18.7685
-32.96 61.1915 -4.4845
-20.4125 45.711 -11.5805
-47.1725 60.7425 11.6435
-5.7455 60.508 17.8755
-5.24 60.4915 18.0385
-4.7455 60.5125 18.0615
-4.2425 60.5035 18.1695
-47.0535 60.0625 11.146
-47.1055 60.0615 10.646
-26.458 28.32 9.568501
-31.2905 75.3235 -4.788
-31.405 75.292 -12.29
21.967 47.97 9.0795
-39.237 70.016 23.9275
18.445 54.985 11.672
-44.1985 49.162 11.1935
18.5445 53.4175 -1.415
-17.426 48.605 -11.495
20.972 48.6135 12.5785
20.7235 48.599 13.0795
20.4785 48.5855 13.584
20.274 29.8225 15.0725
20.7555 29.835 15.1745
21.2495 29.856 15.317
21.746 29.859 15.4755
22.244 29.875 15.6065
22.75 29.8745 15.713
23.252 29.875 15.715
23.755 29.8715 15.6645
24.2575 29.856 15.5215
24.759 29.8395 15.3435
25.1985 29.785 15.179
20.354 47.847 -2.9035
14.8005 59.791 11.02
14.0725 60.455 10.747
20.582 44.3205 -4.8895
5.643 65.158 9.766999
-12.4535 45.827 -16.7735
20.398 52.8215 5.082
5.7555 57.038 19.2305
21.069 50.7305 1.086
7.246 56.315 19.3725
7.752 56.3175 19.2705
-38.0315 77.931 6.844
7.6345 64.42599 9.785
-31.413 75.1 -2.3835
-32.788 77.573 -2.9335
-29.2775 30.2385 11.748
-28.7085 30.4245 12.3445
8.2465 56.3025 19.124
8.743 56.2945 18.94
-26.6775 30.487 14.012
7.6285 62.4025 14.793
-16.3585 62.722 9.813499
6.8665 61.232 16.696
-10.8435 63.2875 2.29
-13.1575 62.4135 0.7135
0.3335 49.252 25.6615
7.938 60.7795 16.383
13.161 61.3445 9.692
-21.7465 30.9735 20.1385
-21.247 30.9955 20.3935
-20.753 31.0025 20.536
-20.246 31.021 20.6315
-19.749 31.015 20.6645
-19.248 31.016 20.658
-18.7465 31.0095 20.601
-18.243 30.9975 20.4785
-17.7495 30.985 20.2655
-17.262 30.9685 19.9845
-16.7495 30.929 19.6315
-16.2505 30.9 19.3125
-15.7475 30.8825 19.13
-15.252 30.8735 18.988
-14.7475 30.8515 18.826
-14.2515 30.841 18.693
-13.741 30.8615 18.8605
-13.2835 30.892 19.3565
0.7385 65.7505 4.4005
0.163 65.6925 4.187
3.3995 65.79449 5.379
8.0325 64.42599 7.079
11.4295 62.722 8.336
13.716 60.939 9.19
16.514 58.087 10.2445
3.085 63.222 15.3205
-30.2465 77.8975 10.3265
-8.227 31.5405 26.381
-7.7565 31.5525 26.667
-18.962 87.5765 -3.6985
-6.237 31.625 27.4075
-5.7435 31.6415 27.603
-5.256 31.6505 27.753
-4.747 31.668 27.91
-4.2505 31.6785 28.0395
-3.7525 31.682 28.1215
-3.2515 31.681 28.1275
-2.7485 31.6835 28.093
-2.2475 31.6855 28.0795
-1.748 31.688 28.1555
-1.2515 31.69 28.2395
-0.749 31.704 28.3435
-0.2505 31.7025 28.366
0.2495 31.7025 28.3645
0.7505 31.7105 28.396
1.254 31.706 28.369
1.7575 31.7 28.314
2.2565 31.6945 28.236
2.762 31.6795 28.0725
3.261 31.66 27.8835
3.767 31.6385 27.716
6.2435 59.0905 18.1035
-43.376 60.596 -0.859
-6.752 59.83 18.2125
-6.2445 59.8195 18.3785
-5.7425 59.816 18.4945
-5.246 59.8305 18.571
-4.744 59.8235 18.6215
-43.786 75.50951 12.738
-35.2625 71.40749 22.598
-37.7505 70.0205 24.05
-8.2285 59.775 17.676
0.7485 59.8425 18.886
22.075 47.973 8.077001
-30.8535 78.421 -15.7965
21.49 45.805 -1.903
21.304 45.793 -2.405
-3.7515 60.54 18.152
-3.248 60.532 18.2015
-2.7445 60.5165 18.305
-2.2465 60.5245 18.373
-1.7435 60.514 18.4765
-0.7485 60.5235 18.5535
0.25 60.535 18.3865
-39.7205 69.994 23.779
-17.786 63.618 1.915
-7.2395 61.829 15.712
-7.736 61.8065 15.3905
-4.25 62.578 15.7285
-3.749 62.5755 15.85
21.796 47.9425 0.5975
21.6215 47.9355 0.0935
20.272 30.511 14.918
20.769 30.5115 14.76
21.253 30.521 14.8615
21.7475 30.5335 15.093
22.246 30.545 15.2175
22.748 30.555 15.3465
23.2505 30.5595 15.411
23.753 30.5575 15.4115
24.2555 30.5505 15.3455
24.764 30.542 15.237
25.257 30.5225 15.0845
25.7705 30.5045 14.8595
-1.5075 63.517 15.1085
9.249 56.29 18.761
8.258 63.293 12.8755
-16.7335 87.134 -0.889
18.032 54.0955 -1.913
19.4995 54.178 7.5815
9.747499 56.285 18.6935
-14.7385 88.63 -2.529
10.2955 56.2935 18.5555
-13.579 62.909 4.203
-18.4005 63.903 2.4295
-21.4115 64.305 1.319
-33.733 77.4665 1.095
-0.203 49.831 24.71
7.216 64.649 9.631001
-33.0935 78.019 -3.0505
-19.062 81.098 -6.4925
-21.5265 76.6185 -3.662
-28.2375 31.2225 14.5425
-27.7505 31.1875 14.689
-27.2365 31.241 14.9915
-26.7275 31.266 15.24
-26.1925 31.308 15.7025
-25.708 31.3705 16.365
-25.2315 31.3895 16.9345
-34.6155 77.8255 0.771
-13.73 62.3255 0.504
3.009 64.2385 13.835
0.3865 63.0405 15.7925
13.5325 61.035 9.832999
-9.1695 63.3025 10.9175
-21.739 31.688 20.2515
-21.235 31.7125 20.49
-20.7405 31.723 20.623
-20.248 31.7265 20.7105
-19.748 31.733 20.7635
-19.249 31.7345 20.7535
-18.7505 31.727 20.7
-18.245 31.7125 20.603
-17.7485 31.704 20.4585
-17.26 31.6855 20.1775
-16.739 31.638 19.7755
-16.2535 31.6205 19.4955
-15.752 31.5985 19.248
-15.249 31.581 19.0605
-14.747 31.5595 18.8905
-14.249 31.5575 18.8095
-13.749 31.5735 19
-13.265 31.616 19.525
4.889 65.5765 5.923
4.4025 65.6685 5.745
8.913 64.0595 7.403
12.227 62.1965 8.6315
13.352 61.2725 9.054
17.155 57.2325 10.481
4.0185 62.9445 15.65
-23.068 66.375 5.846
5.4345 65.33099 8.975
-8.238 32.2455 26.517
-7.74 32.264 26.7575
-7.239 32.2635 26.7515
-6.7295 32.2865 26.9885
-6.23 32.3105 27.2755
-5.7405 32.3265 27.537
-5.2545 32.342 27.692
-4.7565 32.3545 27.823
-4.257 32.364 27.9455
-3.7495 32.3705 28.041
-3.248 32.3765 28.102
-2.7515 32.3775 28.1215
-2.2525 32.3815 28.1845
-1.749 32.3935 28.277
-1.2505 32.397 28.354
-0.7515 32.3975 28.3715
-0.249 32.399 28.351
0.2515 32.395 28.3005
0.7505 32.399 28.3335
1.2555 32.399 28.321
1.7535 32.3965 28.2975
2.256 32.386 28.1815
2.753 32.3735 28.048
3.256 32.3575 27.8735
3.7545 32.346 27.7465
4.264 32.3305 27.5865
6.752 59.1065 18.0795
-38.357 77.109 -2.448
-36.8555 77.739 -13.4535
-42.1805 49.6735 -1.2955
21.22 50.021 0.5975
-37.747 71.418 23.0455
-38.754 87.499 -24.511
0.09500001 65.7635 7.739
-8.7505 59.7795 17.424
1.249 59.838 18.7615
1.7455 59.815 18.674
2.245 59.824 18.504
2.7495 59.8185 18.3765
3.2495 59.819 18.4345
3.748 59.821 18.4355
-10.2555 57.033 18.9805
-9.064 93.626 -9.426
20.8185 42.2405 -4.3855
-23.242 60.335 13.8945
-22.749 60.3185 13.753
-1.246 60.532 18.5005
-0.25 60.5275 18.4995
-37.2545 70.0225 23.9895
-46.107 58.07 18.655
-6.7435 61.8445 15.9685
-5.244 62.5395 15.4575
-25.4845 61.032 -5.499
9.983001 53.919 -8.1305
-47.04 61.3945 7.6385
20.298 31.209 14.8655
20.762 31.18 14.5165
21.2655 31.1855 14.377
21.7345 31.214 14.5445
22.2425 31.218 14.726
22.7435 31.231 14.911
23.245 31.239 14.984
23.751 31.24 15.0425
24.254 31.2355 15.0405
24.7595 31.23 14.981
25.27 31.2255 14.878
25.767 31.2035 14.7295
18.2845 54.5245 13.042
-3.0155 65.37199 7.323
-21.249 83.37 1.908
-23.7825 83.481 -2.462
-23.5655 66.24551 2.7065
-46.3435 59.348 5.153
-43.5025 47.719 1.2135
-39.2495 81.241 -12.9715
-39.2455 60.869 25.779
1.123 65.596 9.552
-2.1315 65.462 8.3625
-5.5765 64.9905 7.109
-9.8945 63.8635 5.5415
-14.178 62.7935 3.983
-20.5435 64.03 0.1705
-21.065 64.0415 -0.018
-3.5655 63.6785 14.371
-0.6215 65.049 11.801
-12.641 37.594 23.971
-31.6255 75.675 -2.488
-33.429 78.421 -3.177
-30.4435 52.0145 -9.1425
-29.941 52.0195 -9.2115
-36.958 56.752 -3.4185
-31.403 44.8005 -9.512
-15.4465 45.072 -12.449
-26.231 32.1155 16.8175
-25.719 32.1605 17.18
-25.181 32.1325 17.4835
-24.7355 32.152 17.831
-11.4255 63.4505 5.716
-10.7985 62.1055 11.8175
13.898 60.705 9.968499
-2.7075 64.4395 13.222
-33.077 81.1 -8.114
-21.736 32.397 20.3095
-21.2425 32.413 20.5105
-20.748 32.422 20.648
-20.246 32.4345 20.7655
-19.7485 32.44 20.829
-19.2485 32.431 20.813
-18.752 32.4415 20.8145
-18.2445 32.4255 20.7305
-17.746 32.41 20.532
-17.251 32.39 20.2635
-16.7545 32.363 19.942
-16.26 32.3435 19.673
-15.7435 32.308 19.393
-15.247 32.293 19.1965
-14.7475 32.273 19.02
-14.252 32.273 19.023
-13.743 32.301 19.2445
7.156 64.8005 6.7735
7.5975 64.6205 6.9175
11.826 62.4505 8.48
12.9775 61.5765 8.9115
17.468 56.791 10.596
-4.5 65.15 6.0615
-23.366 66.826 5.7275
23.601 34.0705 12.8475
-8.2335 32.9665 26.7445
-7.748 32.9685 26.8965
-7.254 32.961 26.852
-6.7475 32.968 26.893
-6.2425 32.9885 27.1185
-5.746 33.01 27.3695
-5.2445 33.03 27.6055
-4.7525 33.0415 27.749
-4.247 33.051 27.8515
-3.7525 33.057 27.935
-3.25 33.0665 28.044
-2.751 33.072 28.1125
-2.2525 33.077 28.182
-1.7485 33.087 28.2765
-1.2495 33.092 28.3545
-0.749 33.093 28.362
-0.2485 33.0885 28.299
0.2495 33.0815 28.204
0.752 33.0785 28.1655
1.2555 33.079 28.145
1.757 33.078 28.1385
2.26 33.068 28.0275
2.7585 33.0555 27.9025
3.2555 33.042 27.755
3.7525 33.031 27.6215
4.257 33.02 27.513
7.2485 59.095 18.0005
7.749 59.087 17.8725
8.251 59.0875 17.7575
8.755501 59.0935 17.648
9.251 59.0795 17.568
-19.363 63.7805 -0.133
-12.2665 59.041 16.2635
4.7485 59.125 18.5735
1.4245 65.8295 7.513
-9.25 59.767 17.2355
-9.753 59.7725 17.0025
-10.2475 59.7475 16.738
-11.274 59.7625 16.0815
-10.755 59.746 16.4325
4.2495 59.8255 18.384
4.7505 59.822 18.262
-18.3965 63.5715 0.222
6.244 59.788 17.7945
6.081 64.974 9.9275
8.2225 63.9425 10.7175
-36.267 70.0075 23.7805
7.395 64.4125 10.4105
-6.2465 61.861 16.164
-47.307 61.413 10.6395
-24.92 61.1215 -5.6015
21.5695 49.349 1.587
22.131 47.975 7.577
20.3305 31.9115 14.874
20.809 31.8805 14.3205
21.275 31.8605 14.0465
21.76 31.871 14.0525
22.247 31.8825 14.227
22.7395 31.899 14.412
23.2465 31.9045 14.586
23.748 31.907 14.6475
24.2515 31.902 14.6945
24.754 31.9065 14.6515
25.2555 31.8945 14.5775
-34.37 78.1745 8.860001
8.05 64.195 9.9395
-10.556 91.4825 -10.5065
15.1315 58.103 13.9985
18.98 54.146 0.5885
19.3775 54.1785 2.082
-30.6995 35.9445 19.4655
-13.5365 62.6395 2.029
-30.738 79.2145 -14.2935
6.872 64.295 11.649
3.6795 65.35899 10.4785
0.575 65.5735 9.3525
-2.706 65.39201 8.1525
-6.1785 64.86 6.8895
-10.5245 63.6845 5.3135
-14.6975 62.798 3.794
-19.0315 63.843 0.7275
-21.9005 64.377 1.1365
-30.5025 77.97449 9.507999
-33.835 79.829 -4.782
-33.185 78.9995 -4.5335
-32.5715 78.1025 -4.3045
-32.909 44.77 -9.139001
-31.91 44.797 -9.4715
-35.4575 56.812 -4.3745
-30.9055 44.8035 -9.522
-15.8975 45.051 -12.4095
-18.077 83.3435 -7.134
-22.5355 76.5925 -3.3715
-27.407 44.1965 -11.016
-20.903 44.223 -11.011
-25.2645 32.887 18.052
-24.692 32.894 18.416
-22.5175 65.548 4.6075
14.268 60.3775 10.107
2.1245 63.446 14.98
-22.744 33.0495 19.756
-21.748 33.097 20.333
-21.2515 33.113 20.5325
-20.7455 33.131 20.7035
-20.2465 33.1415 20.83
-19.748 33.1475 20.889
-19.248 33.1465 20.903
-18.7485 33.1415 20.8435
-18.2455 33.1295 20.7275
-17.7535 33.1205 20.5705
-17.245 33.095 20.348
-16.751 33.081 20.137
-16.2485 33.0525 19.8255
-15.7455 33.029 19.5775
-15.2505 33.0155 19.3745
-14.7475 33.0045 19.245
-14.2435 33.007 19.234
-13.7635 33.005 19.409
-13.3025 33.035 19.8775
9.344999 63.862 7.563
12.608 61.9 8.775001
14.8085 59.94 9.597
18.059 55.847 10.8115
18.9125 54.353 11.124
-37.0795 77.769 0.6335
22.602 34.2265 12.422
12.435 60.569 13.709
-40.088 77.523 6.861
-8.238 33.682 26.9905
-7.7425 33.6945 27.176
-7.244 33.69 27.113
-6.7555 33.661 26.9275
-6.251 33.674 27.026
-5.759 33.6935 27.2855
-5.2515 33.7145 27.505
-4.7445 33.7305 27.6675
-4.247 33.7405 27.792
-3.745 33.752 27.904
-3.2525 33.755 27.9975
-2.7485 33.766 28.0975
-2.2505 33.7705 28.168
-1.7505 33.775 28.2355
-1.25 33.7785 28.312
-0.7475 33.7795 28.3275
-0.248 33.7815 28.2755
0.2525 33.772 28.174
0.754 33.7625 28.061
1.256 33.7555 27.957
1.7555 33.7545 27.951
2.2555 33.7485 27.894
2.76 33.737 27.802
3.259 33.7295 27.647
3.7525 33.7205 27.567
4.2535 33.7155 27.5045
4.7595 33.6975 27.3435
10.789 56.31 18.3825
-38.7485 64.4305 26.665
-45.767 70.30099 9.0905
17.808 54.81 -1.424
4.249 59.127 18.696
-36.4745 78.1295 9.5735
-27.7525 76.943 11.957
2.541 64.3655 13.662
-38.8415 77.406 13.15
-11.773 59.7495 15.8265
-12.257 59.711 15.611
-12.754 59.697 15.4165
-17.249 59.6675 15.0875
-17.747 59.6845 15.1665
6.753 59.8 17.699
-25.208 72.367 6.188
-34.7335 31.768 10.8045
-25.054 72.373 5.6905
-38.902 78.4635 -8.456
-36.6595 76.831 16.149
-5.7425 61.854 16.344
21.8865 48.665 8.0775
21.9145 48.675 7.581
-43.767 55.236 8.1695
-43.9805 51.828 5.1935
13.8705 60.5105 11.384
-35.0395 77.4705 14.4635
12.96 61.4175 10.3325
21.7655 32.5325 13.655
22.252 32.5425 13.7705
22.746 32.557 13.952
23.2425 32.577 14.091
23.7465 32.5745 14.2
24.2505 32.579 14.2635
24.752 32.5775 14.2625
25.2545 32.5735 14.203
25.7605 32.5685 14.0885
26.268 32.5585 13.9685
26.786 32.5475 13.741
-20.749 83.3745 1.8475
21.0625 50.021 0.0895
-43.775 64.025 0.139
22.217 43.058 12.0775
22.392 45.1795 10.0785
6.7635 64.93999 8.0365
-38.75 78.474 -6.952
8.5155 63.3405 12.255
6.4335 64.483 11.4865
3.186 65.4395 10.297
0.0845 65.629 9.1695
-3.2805 65.31699 7.944
-6.813 64.69749 6.662
-11.1525 63.499 5.086
-20.0215 63.999 0.3625
-19.5265 63.9285 0.544
8.7585 60.8475 15.946
-35.872 81.096 -5.518
-38.639 77.1975 13.951
-40.4515 76.917 13.361
-39.97 66.2165 -2.2765
-20.432 52.1125 -10.2745
-30.4075 44.8145 -9.650001
-29.9045 44.8425 -10.0205
-16.4145 45.0645 -12.29
-41.418 58.1005 -1.0865
-4.916 44.824 -18.332
-3.414 44.8165 -18.0905
-35.954 32.3245 10.065
-30.464 56.2675 -7.376
6.5655 53.625 -9.499499
-1.9365 52.2525 -11.4245
14.6275 60.038 10.2415
-18.5015 63.1965 9.773
-23.2345 33.7655 19.802
-22.7365 33.785 20.0575
-21.747 33.811 20.457
-21.247 33.8275 20.648
-20.7505 33.836 20.789
-20.245 33.85 20.875
-19.747 33.8495 20.883
-19.2485 33.842 20.8625
-18.748 33.843 20.841
-18.25 33.8375 20.7695
-17.7545 33.8345 20.6915
-17.255 33.8225 20.5715
-16.7545 33.8015 20.3195
-16.251 33.773 20.0105
-15.754 33.7525 19.748
-15.25 33.7285 19.506
-14.749 33.724 19.435
-14.247 33.7235 19.44
-13.784 33.7145 19.63
-13.235 33.838 20.4105
15.5135 59.2485 9.866
15.1685 59.603 9.731999
17.767 56.3385 10.706
-7.911 63.673 11.3635
0.2715 61.6655 17.2325
-9.533 63.985 6.398
-33.199 82.0525 -9.6015
-33.871 82.2355 -9.127999
-8.744499 34.3665 26.952
-8.233 34.4025 27.2125
-7.744 34.405 27.3585
-7.248 34.395 27.3195
-6.7505 34.373 27.0885
-6.255 34.3755 27.164
-5.752 34.404 27.4485
-5.2405 34.424 27.598
-4.761 34.4185 27.714
-4.2545 34.435 27.8775
-3.75 34.4485 27.9855
-3.26 34.4415 28.088
-2.754 34.4575 28.1865
-2.253 34.459 28.2595
-1.751 34.466 28.3195
-1.248 34.4755 28.3665
-0.7485 34.4795 28.34
-0.243 34.4665 28.2575
0.255 34.464 28.182
0.761 34.4485 28.034
1.2525 34.446 27.9295
1.754 34.4405 27.8845
2.2525 34.441 27.8625
2.7545 34.4285 27.774
3.252 34.43 27.7475
3.755 34.423 27.7015
4.2535 34.419 27.6285
4.75 34.411 27.497
18.48 52.7045 -2.415
19.504 52.7695 0.0805
0.905 65.846 7.3215
2.221 65.7695 8.519
-30.261 77.74751 11.7745
9.983001 63.342 9.9375
20.798 50.7305 9.5835
3.7505 59.136 18.8295
3.244 59.1195 18.922
2.744 59.114 18.917
2.248 59.136 19.0675
-31.956 80.274 -9.143499
-17.0435 88.736 -3.721
-41.2985 51.664 -1.8035
-46.6545 63.428 6.6265
-18.2485 59.679 15.221
-7.89 64.299 4.099
-31.8395 78.7415 -6.9325
17.38 56.5165 11.9915
-37.1965 78.726 -2.354
-5.236 61.8415 16.519
21.801 48.6705 8.5825
21.9675 48.675 7.08
-45.912 64.1535 16.1215
-34.7395 61.599 26.5305
10.596 62.905 10.8775
20.842 50.0185 11.08
21.4375 50.044 2.0865
21.2965 33.2295 13.6625
21.763 33.2015 13.262
22.265 33.2085 13.2155
22.735 33.2295 13.3375
23.245 33.232 13.571
23.7445 33.2485 13.702
24.249 33.2435 13.811
24.751 33.247 13.8165
25.2555 33.251 13.7675
25.758 33.244 13.7025
26.264 33.2365 13.5845
18.1625 52.685 -3.4165
20.0165 53.5065 5.5825
-45.019 67.5195 5.1065
22.362 43.07 11.583
-39.1695 87.4985 -24.006
22.029 43.044 12.576
-0.4805 65.69849 7.5305
7.724 63.8795 11.964
8.139 63.643 12.1165
2.676 65.4945 10.115
-0.4625 65.594 8.9695
-3.8555 65.234 7.7355
-1.0585 62.789 16.018
4.3305 64.2825 13.5945
-34.616 80.977 -5.7955
-35.028 81.21349 -5.948
-5.2665 63.5065 13.7735
-5.8155 63.478 13.5765
-29.514 77.806 9.862
-29.9635 61.1865 -4.3395
-10.9345 52.219 -11.484
-16.9135 45.0535 -12.1685
-17.413 45.0455 -12.1035
-17.912 45.0345 -12.0325
-41.413 57.36 -0.812
-1.9065 44.8145 -17.8675
-2.914 44.8105 -18.0205
6.0675 53.6325 -9.636
-2.434 52.2545 -11.4465
4.5665 52.215 -10.298
-35.4335 79.007 -1.7285
-32.7765 80.6465 -8.0015
-23.2505 34.4835 20.148
-22.7445 34.5095 20.3895
-22.2445 34.526 20.5785
-21.739 34.549 20.7445
-21.2465 34.547 20.831
-20.7495 34.5435 20.856
-20.25 34.5435 20.8575
-19.749 34.5445 20.8605
-19.249 34.5515 20.8885
-18.7495 34.552 20.888
-18.252 34.553 20.8755
-17.748 34.54 20.78
-17.2515 34.535 20.705
-16.747 34.5115 20.4665
-16.2435 34.4845 20.149
-15.7525 34.465 19.881
-15.251 34.45 19.6885
-14.75 34.4315 19.5875
-14.245 34.449 19.691
-13.7775 34.45 19.9295
-13.248 34.539 20.7795
15.8505 58.8665 9.993
16.8365 57.663 10.3645
-14.422 62.4405 9.0415
-39.6985 75.524 17.391
-28.3555 76.566 14.658
-10.8945 61.247 14
-34.2625 82.5155 -9.274501
-33.4855 81.9455 -8.9845
-8.7475 35.076 27.1395
-8.248 35.096 27.3785
-7.7455 35.109 27.4845
-7.2475 35.0845 27.3685
-6.7485 35.082 27.1975
-6.241 35.0995 27.43
-5.7545 35.115 27.6975
-5.2345 35.1495 27.888
-4.7415 35.1615 28.079
-4.248 35.1695 28.2775
-3.755 35.1705 28.4125
-3.249 35.194 28.581
-2.7495 35.196 28.648
-2.2515 35.1855 28.6735
-1.7485 35.1995 28.7115
-1.244 35.189 28.6615
-0.7445 35.1825 28.5435
-0.242 35.1735 28.424
0.258 35.1645 28.3045
0.7565 35.1575 28.182
1.257 35.141 28.021
1.753 35.138 27.941
2.253 35.1305 27.896
2.751 35.139 27.929
3.253 35.137 27.939
3.7535 35.132 27.875
4.26 35.1205 27.766
4.76 35.107 27.5835
9.2955 58.3445 17.963
8.747999 58.384 18.0585
7.75 58.393 18.189
7.248 58.3955 18.3075
8.2505 58.3935 18.133
6.754 58.4145 18.3435
6.2495 58.4025 18.3805
2.2465 57.7735 20.021
-39.0685 51.5385 -4.2845
-23.2445 58.9845 15.24
-22.75 58.989 15.302
-22.25 58.979 15.414
-21.75 58.9835 15.478
1.746 59.144 19.2555
-3.2495 59.1655 19.228
-2.7425 59.1505 19.3775
-44.4915 49.8455 9.6955
-18.748 59.692 15.2365
-44.9975 67.507 4.61
-6.662 64.622 4.5485
-7.247 57.7435 19.338
-26.7235 73.114 11.7035
-31.663 79.8155 -9.036
-4.239 61.8625 16.9005
-4.739 61.855 16.711
-44.3195 51.182 8.688
-44.7155 68.9645 18.5885
20.0555 52.8175 9.0855
-35.2375 61.6005 26.6785
-34.472 64.8425 -4.499
-37.259 67.923 25.1985
-38.243 72.114 22.416
21.7895 33.89 13.081
22.2845 33.8835 12.721
22.765 33.8875 12.7115
23.249 33.888 12.8795
24.2485 33.9035 13.24
24.7485 33.92 13.258
25.2535 33.921 13.2605
25.754 33.9005 13.239
26.2675 33.918 13.091
26.758 33.881 12.989
-43.932 68.8785 3.6
15.7145 51.0535 18.417
22.489 43.0795 11.0855
-28.712 30.6725 13.01
-46.021 63.479 18.1265
-44.773 48.4995 8.205999
20.4145 50.6815 -0.9035
21.263 50.743 3.083
7.31 64.1115 11.8095
6.0195 64.713 11.331
-29.0945 78.6905 3.4895
-0.638 63.721 14.7015
8.312 61.0485 15.795
-33.897 80.291 -5.528
-34.231 80.685 -5.6535
-43.0585 76.0865 12.5105
-38.0355 76.152 17.183
-32.864 81.6605 -9.476001
-19.933 52.1075 -10.1985
-33.973 64.118 -4.5305
-28.517 72.1095 -0.9255
-39.4255 58.166 -2.4395
-10.4345 52.222 -11.432
-36.4395 58.2255 -3.701
-18.095 84.0915 -7.028
-35.9545 53.9595 -5.3855
-21.399 44.222 -10.908
-2.4125 44.81 -17.964
-4.412 44.8285 -18.288
-3.9145 44.8215 -18.214
-2.933 52.2555 -11.457
-1.4075 44.8065 -17.7885
-33.98 66.3005 -4.2575
-22.7415 35.2475 20.7575
-22.243 35.264 20.948
-21.7465 35.265 21.0255
-21.2525 35.2505 21.0075
-20.7475 35.26 20.9535
-20.2485 35.2525 20.9105
-19.7485 35.252 20.9065
-19.2485 35.2585 20.9535
-18.7485 35.2575 20.9665
-18.249 35.2575 20.964
-17.7525 35.2535 20.89
-17.2525 35.243 20.7675
-16.7495 35.22 20.5225
-16.2585 35.2015 20.2465
-15.75 35.177 20.0145
-15.2485 35.1605 19.8295
-14.75 35.1525 19.775
-14.2495 35.1655 19.892
-13.785 35.231 20.2105
18.627 54.8505 11.019
18.343 55.3815 10.9205
-7.28 63.8525 11.584
-29.065 77.751 8.577001
22.0845 35.3295 12.2805
-2.617 64.043 13.9895
-35.5235 83.186 -9.7375
-33.128 81.6015 -8.853499
-27.856 77.54401 6.8445
-8.738 35.7965 27.356
-8.259999 35.795 27.5175
-7.7505 35.804 27.567
-7.243 35.7885 27.462
-6.797 35.8155 27.402
-6.229 35.8385 27.704
-5.7525 35.83 27.9335
-5.2485 35.854 28.1595
-4.736 35.886 28.4305
-4.242 35.902 28.6855
-3.753 35.9055 28.831
-3.2455 35.9245 28.9885
-2.7495 35.925 29.068
-2.2505 35.919 29.0855
-1.747 35.9165 29.088
-1.245 35.912 29.02
-0.7405 35.904 28.903
-0.23 35.8745 28.694
0.257 35.879 28.536
0.7625 35.857 28.318
1.2635 35.836 28.0925
1.7525 35.837 27.995
2.2505 35.843 28.0475
2.7515 35.847 28.111
3.2525 35.8475 28.1125
3.7505 35.845 28.0375
4.2595 35.8265 27.887
5.2385 58.409 18.7375
-31.001 86.264 -27.2985
-36.7435 63.71951 26.2945
-2.245 58.4695 19.8865
-1.744 58.465 19.941
-1.245 58.4725 19.9495
-0.747 58.4765 20.0155
4.745 58.4245 18.88
-25.995 80.694 3.1405
-23.746 81.874 2.714
-44.2805 64.7465 1.619
-21.1815 60.659 -6.1545
-36.753 59.4855 26.5955
-21.252 58.991 15.6075
-20.25 59.0015 15.7405
-3.7495 59.1575 19.1545
-36.25 60.1955 26.792
-19.2505 59.6945 15.179
-26.642 76.346 8.023001
-6.249 57.762 19.5995
-26.946 73.11 12.2005
16.6685 57.7995 11.014
12.5295 61.473 11.598
20.3095 52.0965 0.588
19.0715 51.9835 -1.936
-42.3165 54.461 2.1835
-13.945 45.17 -15.8035
-1.2005 64.2685 13.7755
21.237 50.757 6.582
-37.2475 72.092 22.5105
-37.7455 72.1105 22.4725
-46.2405 62.7965 18.63
22.2755 34.574 12.325
-4.7205 84.0675 -9.868
21.0665 51.4355 4.0815
-31.35 75.3245 -4.2865
24.2475 34.553 12.539
-46.749 61.381 6.1405
26.2595 34.563 12.555
-22.495 83.465 -3.9265
-25.698 80.602 -1.909
-11.9755 61.8865 11.395
20.893 44.346 -4.3885
-31.71 83.9045 -21.2975
13.798 51.071 20.034
13.119 59.829 13.9575
12.095 60.9505 13.5805
8.9095 63.062 12.4025
2.9165 64.6565 13.0845
-27.177 79.3115 4.1865
-31.7985 77.055 -4.74
-32.047 77.6095 -4.8345
-33.227 79.5075 -5.2765
-44.9845 75.475 7.395
-16.2975 62.2605 10.5775
-5.194 64.944 4.3655
-5.826 64.7785 4.134
-6.4255 64.6345 3.9135
-19.432 52.1045 -10.18
2.59 45.4395 -16.4555
-9.614 89.3095 -11.7835
-14.0625 82.6215 -8.2035
-25.5465 78.0505 -2.428
-37.472 64.81699 -3.9825
-38.3565 35.339 12.231
-28.2115 35.9035 19.9925
-21.9015 44.2165 -10.9505
-4.9345 52.254 -11.626
5.063 53.638 -9.875999
-26.5425 75.8205 -1.5715
-35.4775 67.02599 -4.0875
-3.4355 52.253 -11.5015
-0.9315 52.252 -11.2605
-23.7495 35.92 20.53
-23.243 35.9495 20.7625
-22.7455 35.9625 20.96
-22.2495 35.969 21.1055
-21.7485 35.975 21.166
-21.2505 35.9665 21.121
-20.749 35.963 21.0515
-20.248 35.959 20.976
-19.749 35.9605 20.9645
-19.2475 35.9585 20.9865
-18.749 35.9645 21.034
-18.25 35.9655 21.0215
-17.7455 35.953 20.9245
-17.247 35.943 20.7915
-16.748 35.927 20.593
-16.248 35.905 20.3385
-15.7515 35.891 20.133
-15.248 35.872 19.9615
-14.7465 35.876 19.948
-14.2625 35.875 20.1115
-13.823 35.8775 20.4785
-13.2955 61.972 10.1885
-10.1635 63.8075 6.17
-23.651 82.215 2.4855
-34.654 82.7965 -9.42
-32.51 80.7095 -8.626
-33.393 78.0905 7.7575
-8.7395 36.506 27.54
-8.243 36.5135 27.6665
-7.7465 36.511 27.6765
-7.253 36.5045 27.7025
-6.7405 36.539 27.8875
-6.2515 36.53 27.992
-5.751 36.5415 28.109
-5.2475 36.558 28.2785
-4.746 36.578 28.514
-4.248 36.596 28.7615
-3.758 36.607 28.9645
-3.2445 36.631 29.166
-2.7595 36.621 29.2365
-2.2495 36.637 29.31
-1.7485 36.635 29.324
-1.2455 36.6285 29.2685
-0.7415 36.6185 29.147
-0.237 36.6035 28.971
0.27 36.582 28.7435
0.7625 36.5615 28.431
1.26 36.5385 28.1395
1.75 36.543 28.1015
2.251 36.5455 28.1895
2.752 36.5515 28.242
3.253 36.551 28.2395
3.76 36.5405 28.1415
4.2595 36.531 28.007
-10.252 58.395 18.0175
-6.7565 58.4585 19.111
-8.7495 57.727 18.959
-6.746 61.1695 16.799
-35.5735 87.535 -27.013
-7.766 58.4255 18.6225
-7.257 58.449 18.922
-6.243 58.445 19.265
1.245 57.7725 20.192
-9.0255 64.052 5.132
-36.249 60.9035 26.834
7.1965 64.747 8.198
-34.2545 74.1955 20.129
-37.254 59.4835 26.4625
-20.7495 58.9925 15.7305
-4.252 59.17 19.1115
-35.7465 60.1985 26.7655
-19.7525 59.6925 15.1145
-46.4875 59.38 12.654
-12.7925 46.5245 -15.3025
-6.749 57.755 19.4705
-44.374 51.1815 8.1895
-40.774 62.2455 25.805
21.27 49.3335 0.08350001
20.1185 52.0845 0.0885
-31.3485 74.51649 -8.2925
20.752 52.123 4.082
-40.7325 65.117 26.1045
-37.754 66.529 25.9875
22.3925 45.8835 9.079
-38.734 72.0915 22.3325
-41.908 53.818 12.675
20.8275 45.042 -4.3855
-29.4085 61.622 -4.084
-26.4585 72.3465 10.699
-47.2255 61.404 8.634
21.4275 48.6485 11.0835
21.5425 48.652 10.581
22.098 48.6845 5.0815
-0.4335 52.2475 -11.188
22.507 47.2935 4.082
22.4475 47.291 5.0805
22.4365 47.288 5.5785
-36.7735 81.1045 -6.0855
-19.6905 64.0655 1.221
16.8615 57.005 12.509
-47.251 62.7735 10.129
2.2155 63.012 15.721
-22.7485 65.84 7.441
-16.7135 62.492 10.4215
-0.268 50.17 23.742
15.4365 57.6615 14.116
16.029 56.725 14.3405
16.3035 56.224 14.442
-21.9785 64.805 7.007
-31.57 76.448 -4.657
-36.609 77.5485 13.9135
-5.127 89.502 -14.7975
-35.9055 74.98 19.4525
-4.025 65.178 4.796
-4.5925 65.072 4.5875
-27.1825 76.684 9.9965
-32.711 78.162 10.897
2.092 45.441 -16.466
1.587 45.44 -16.5745
-30.969 32.3885 15.4545
-26.902 44.205 -11.058
-26.4005 44.2025 -10.9915
-25.899 44.201 -10.943
-29.25 36.619 20.5355
-28.747 36.6375 20.5785
-28.2485 36.628 20.5215
-27.695 36.6165 20.4565
-27.248 36.627 20.4525
-26.7485 36.627 20.5235
-26.177 36.6455 20.736
-25.676 36.654 20.8445
-25.2475 36.662 20.8995
-24.752 36.6265 20.8125
-24.25 36.6385 20.7955
-23.7535 36.635 20.811
-23.247 36.6575 20.9035
-22.748 36.667 21.036
-22.244 36.6865 21.2025
-21.747 36.6905 21.271
-21.248 36.691 21.2725
-20.75 36.685 21.2075
-20.247 36.6695 21.119
-19.7505 36.675 21.073
-19.2495 36.6685 21.02
-18.7465 36.666 21.023
-18.2495 36.667 21.0285
-17.7475 36.6615 20.9815
-17.2465 36.65 20.8525
-16.77 36.643 20.668
-16.253 36.615 20.3885
-15.7605 36.612 20.215
-15.2465 36.5985 20.1145
-14.739 36.604 20.1865
-14.29 36.585 20.3975
-8.8585 62.767 12.5015
-32.5095 77.1825 15.3535
5.8785 65.1645 9.1385
-23.0495 66.19051 8.798
-35.084 82.997 -9.577499
-32.2095 80.255 -8.5155
2.2005 62.415 16.4555
-44.359 61.9885 1.1425
-9.2445 37.1885 27.4335
-8.7485 37.206 27.681
-8.2465 37.216 27.7965
-7.745 37.2285 27.9085
-7.242 37.244 28.0765
-6.748 37.248 28.2195
-6.2495 37.251 28.287
-5.746 37.258 28.335
-5.252 37.254 28.3525
-4.758 37.262 28.4915
-4.247 37.2895 28.7585
-3.7595 37.302 28.976
-3.257 37.3175 29.1525
-2.759 37.326 29.289
-2.2505 37.336 29.376
-1.7495 37.335 29.3965
-1.2465 37.335 29.379
-0.746 37.3305 29.3145
-0.236 37.314 29.1545
0.2645 37.2955 28.913
0.7635 37.268 28.5495
1.257 37.241 28.183
1.754 37.242 28.187
2.251 37.252 28.288
2.7505 37.2525 28.303
3.2525 37.252 28.292
3.7505 37.2475 28.222
4.2495 37.238 28.096
-14.253 58.3205 16.194
-9.751499 58.405 18.207
2.748 57.769 19.899
-9.259999 57.7465 18.81
-8.245 57.722 19.0125
-9.252 58.4145 18.3385
-8.7545 58.4225 18.409
-8.252999 58.42 18.4655
0.746 57.774 20.2535
0.2495 57.7865 20.333
1.1885 65.8175 8.1405
0.249 58.4735 19.953
0.7475 58.467 19.8855
-33.154 75.1705 18.885
-37.761 59.48 26.412
-4.7475 59.1475 19.082
-35.2415 60.194 26.6635
-20.2475 59.6635 15.083
-30.903 86.26601 -27.7935
-20.706 64.168 0.8475
-13.8395 77.6155 -1.699
-30.538 83.868 -29.9015
-40.264 62.2685 25.999
3.7505 61.898 16.9865
-43.5175 70.951 4.595
-46.8565 63.4315 7.631
15.4895 59.061 11.2805
-18.981 87.3665 -2.2675
-38.2485 66.54 26.0705
-36.756 71.403 23.023
-39.2195 72.0665 22.1875
21.042 45.0655 -3.9005
12.5705 51.045 20.896
6.8585 46.347 25.7955
-31.4035 83.131 -20.7955
-31.697 79.939 -24.794
21.794 45.847 12.08
18.55 54.84 0.5835
-44.878 70.326 14.591
-13.16 46.5315 -14.793
-37.2285 72.19299 -3.947
22.0345 48.68 6.0815
22.0125 48.673 6.579
22.0815 48.6795 5.5805
18.3485 53.4035 -1.9135
-2.747 65.41901 6.7015
-36.2065 78.396 -0.5715
-11.788 92.2015 -6.181
-47.0105 60.061 11.65
-33.619 77.556 2.595
-37.788 77.92551 6.2015
-27.5405 76.89651 11.308
14.1465 59.2995 13.619
-19.7685 86.0815 -0.4185
-28.9535 76.3345 15.906
-37.6095 77.7995 12.101
4.881 63.1255 15.231
-22.6945 65.3185 9.687
-2.245 65.49751 5.4495
-2.8185 65.415 5.2385
-3.4215 65.29951 5.017
-17.6785 87.2045 -1.06
-4.633 50.0365 23.892
-8.719 63.8405 2.3465
-9.344001 63.6515 2.116
-39.9545 35.3245 6.6125
-31.247 37.3185 20.3975
-30.7435 37.3395 20.5785
-30.2375 37.365 20.7495
-29.7475 37.3595 20.906
-29.2445 37.379 21.0165
-28.7475 37.3735 21.028
-28.249 37.36 20.9795
-27.7495 37.3495 20.9245
-27.2485 37.3565 20.9115
-26.7465 37.3775 21.0215
-26.2475 37.384 21.155
-25.743 37.4175 21.309
-25.248 37.396 21.3515
-24.7495 37.376 21.3195
-24.2465 37.3615 21.2075
-23.7485 37.3645 21.1295
-23.2485 37.369 21.0375
-22.746 37.3755 21.082
-22.248 37.3845 21.226
-21.746 37.397 21.3325
-21.2465 37.403 21.3945
-20.7485 37.4035 21.3875
-20.2475 37.388 21.305
-19.746 37.377 21.1835
-19.2495 37.3685 21.039
-18.749 37.3635 20.969
-18.247 37.3625 20.986
-17.749 37.363 20.9725
-17.2515 37.358 20.8985
-16.751 37.3415 20.71
-16.246 37.32 20.4755
-15.7485 37.3115 20.3305
-15.2395 37.323 20.282
-14.7725 37.2865 20.338
-14.365 37.2595 20.61
-34.546 78.16399 10.9765
-28.492 76.9005 13.871
-19.412 61.0905 13.91
-31.5605 78.0515 7.682
-8.3045 64.301 6.843
-33.914 78.1125 7.571
-7.729 64.12299 9.960999
-9.74 37.882 27.367
-9.251 37.8935 27.629
-8.7505 37.9075 27.81
-8.2465 37.92 27.9175
-7.744 37.9345 28.087
-7.2405 37.951 28.254
-6.7475 37.9555 28.4
-6.2545 37.9555 28.489
-5.7455 37.9705 28.569
-5.2505 37.9685 28.5875
-4.7515 37.968 28.5955
-4.2575 37.971 28.6795
-3.7555 37.9925 28.9115
-3.256 38.0075 29.092
-2.7515 38.021 29.257
-2.256 38.0285 29.3485
-1.75 38.0325 29.3995
-1.246 38.0315 29.3955
-0.744 38.0255 29.3255
-0.2385 38.0155 29.208
0.258 38.001 29.044
0.7615 37.974 28.6675
1.2645 37.938 28.2055
1.7525 37.9425 28.1875
2.2545 37.9405 28.2075
2.751 37.944 28.249
3.2525 37.944 28.243
3.753 37.938 28.177
4.258 37.93 28.0645
4.752 37.9135 27.865
-0.747 57.797 20.4115
-1.744 57.7825 20.326
-13.249 56.9445 17.5655
-2.7475 57.7805 20.0945
-14.75 58.3095 16.183
-15.25 58.309 16.1215
-16.2515 58.3225 16.0805
-16.75 58.3085 16.067
3.238 57.749 19.8045
-5.7485 58.4585 19.3445
-4.7385 58.447 19.6235
-0.2495 58.475 20.014
-43.3085 75.5585 13.451
-44.7565 67.5905 19.5925
-15.249 58.967 15.403
-6.7555 59.149 18.729
-34.743 60.1935 26.579
-20.7525 59.681 14.978
-8.432 64.2075 5.35
-31.7805 87.0545 -26.2925
6.391 46.348 26.0015
-31.7585 79.931 -25.7925
-39.766 62.2695 26.0705
19.6985 44.9575 -5.8885
-35.4155 47.5695 -7.934999
-12.594 60.5075 14.154
-1.7975 65.473 4.1785
-37.254 66.53 25.82
-8.547 63.503 11.1445
20.4665 45.0185 -4.895
-27.8165 60.5785 -4.983
-21.247 84.109 1.429
-46.734 60.058 12.656
20.707 52.129 5.581
-44.4415 49.1705 10.2005
-42.7845 69.532 1.111
-30.859 77.64899 -13.291
-37.4455 81.89 -17.999
-46.9925 63.443 8.627
-24.5475 70.0745 5.697
-24.3615 83.494 -0.49
-24.246 81.12251 3.2255
-9.754999 57.0445 19.175
20.2665 52.811 7.081
-35.6865 81.2045 -21.9775
-31.824 77.795 4.6895
-8.623501 62.065 14.0575
13.075 60.327 13.229
-19.231 86.108 -0.2105
-8.139501 63.8225 10.554
-13.3885 61.102 12.371
-37.8955 77.5005 2.519
-1.0965 65.6475 5.871
-1.6705 65.575 5.6605
-19.415 86.9515 -1.7135
-18.7945 87.107 -1.4915
-18.225 87.1685 -1.2835
-7.4385 64.265 2.8185
-8.097 64.044 2.5745
-37.3115 83.406 -11.116
-31.4035 44.081 -9.5225
-31.7405 38.0445 20.5715
-31.2485 38.0445 20.7215
-30.741 38.0685 20.889
-30.2485 38.0705 21.0375
-29.746 38.0885 21.222
-29.248 38.0975 21.353
-28.749 38.1025 21.4175
-28.2485 38.1055 21.41
-27.7495 38.0925 21.365
-27.2495 38.0845 21.307
-26.749 38.0875 21.301
-26.2455 38.11 21.3995
-25.7455 38.119 21.5295
-25.25 38.1145 21.6205
-24.7485 38.124 21.6715
-24.249 38.1185 21.609
-23.748 38.099 21.4325
-23.248 38.0795 21.176
-22.7485 38.077 21.092
-22.247 38.0865 21.2145
-21.7415 38.1025 21.375
-21.2425 38.113 21.4965
-20.7475 38.114 21.52
-20.2515 38.1175 21.4975
-19.7495 38.0975 21.345
-19.2575 38.0935 21.169
-18.7505 38.0765 21.0925
-18.251 38.071 21.018
-17.752 38.0655 20.9515
-17.2545 38.0605 20.885
-16.7525 38.0495 20.7685
-16.2525 38.0405 20.637
-15.748 38.024 20.4545
-15.254 38.0135 20.421
-14.8125 37.9885 20.5695
-36.031 83.297 -9.902499
-36.543 83.29501 -10.1115
-37.1985 83.066 -10.349
-8.933001 64.12 6.6165
-31.923 79.7595 -8.41
-16.7885 88.646 -2.909
-40.539 77.4675 9.633
-9.7445 38.5975 27.676
-9.243501 38.6125 27.853
-8.7495 38.6155 27.988
-8.2545 38.615 28.071
-7.747 38.6365 28.2175
-7.2485 38.64 28.2825
-6.747 38.654 28.458
-6.2535 38.66 28.6035
-5.7595 38.679 28.7245
-5.251 38.6795 28.834
-4.7515 38.6795 28.84
-4.249 38.681 28.8255
-3.749 38.6805 28.8295
-3.2545 38.693 28.9765
-2.7535 38.708 29.154
-2.257 38.7205 29.247
-1.751 38.7205 29.285
-1.2475 38.72 29.278
-0.746 38.7145 29.257
-0.2375 38.7085 29.161
0.2665 38.694 28.986
0.7605 38.673 28.7265
1.2525 38.6395 28.2895
1.76 38.6255 28.0875
2.253 38.6245 28.0655
2.75 38.626 28.102
3.2545 38.6305 28.088
3.754 38.625 28.063
4.253 38.6185 27.991
4.7525 38.604 27.8065
-19.747 58.331 16.2725
-1.2435 57.776 20.3715
-13.7505 56.948 17.51
-14.2505 56.951 17.453
-2.249 57.7955 20.2355
-19.2395 58.3395 16.1095
-18.746 58.308 16.0095
-18.2475 58.3145 15.9605
-15.7495 58.3045 16.117
-12.7615 58.339 16.456
-5.239 58.4425 19.4955
1.2475 58.467 19.8265
21.2915 50.0275 1.093
-12.785 60.9695 -3.4905
18.9265 53.44 -0.416
-7.2615 59.1525 18.5545
-21.748 59.6505 14.769
0.642 65.792 7.94
-30.7945 77.656 -10.791
19.737 51.3775 13.091
-41.959 56.449 0.635
-39.264 62.2765 26.1305
2.7515 61.8835 16.9715
-42.36 55.5075 16.7845
-47.2175 60.742 11.1415
-40.2345 65.124 26.3425
11.397 62.3875 11.1755
-37.7515 69.32301 24.4745
-36.758 69.3245 24.299
7.641 64.569 8.359
-34.8465 79.072 -24.9675
-35.4115 77.9345 12.867
-43.0585 47.6905 0.221
-30.984 79.999 -18.308
-19.0315 87.059 -4.978
15.996 57.2085 -1.6345
18.2155 54.1025 -1.41
18.4145 54.1185 -0.9135
-42.78 55.872 13.1725
-1.993 63.0475 15.6765
-1.526 62.917 15.847
-9.268 61.9075 13.8455
12.382 61.057 12.97
5.2625 61.677 16.836
-29.5535 77.8285 8.400499
2.7175 65.826 7.271
2.2045 65.8475 7.083
-20.887 86.2705 -2.2325
-20.092 86.696 -1.9575
-5.5855 64.782 3.501
-6.216 64.605 3.268
-6.811 64.4575 3.049
-36.1685 78.1525 10.409
-31.519 77.0245 15.7045
-6.0905 49.2145 24.904
-31.748 38.7585 20.845
-31.246 38.77 20.967
-30.7415 38.7845 21.079
-30.235 38.805 21.2495
-29.7375 38.818 21.445
-29.2425 38.8245 21.5915
-28.7485 38.824 21.6745
-28.2485 38.8295 21.738
-27.7485 38.83 21.7385
-27.2495 38.8085 21.635
-26.749 38.8075 21.5635
-26.2465 38.8265 21.5885
-25.7485 38.8315 21.7315
-25.249 38.8365 21.878
-24.7485 38.8445 21.933
-24.246 38.837 21.8795
-23.7485 38.824 21.6705
-23.2545 38.8065 21.393
-22.748 38.777 21.105
-22.242 38.788 21.1715
-21.743 38.802 21.3735
-21.2425 38.812 21.507
-20.7465 38.818 21.5865
-20.2485 38.8195 21.5885
-19.752 38.818 21.4975
-19.2545 38.81 21.375
-18.7535 38.792 21.202
-18.256 38.7835 21.065
-17.755 38.7695 20.95
-17.254 38.7585 20.827
-16.7515 38.747 20.7075
-16.2465 38.7345 20.6085
-15.7395 38.744 20.543
-15.2805 38.707 20.5475
-35.748 78.1415 7.646
-34.4325 43.0395 21.46
-33.346 77.75 13.59
-39.876 77.49001 6.205
-32.814 81.16199 -8.737
-16.144 88.8455 -2.6805
-46.499 64.806 7.618
-45.6715 58.035 15.655
-10.238 39.311 27.8465
-9.7435 39.3205 28.033
-9.2525 39.32 28.1785
-8.7465 39.341 28.3355
-8.245 39.3475 28.3845
-7.7505 39.3365 28.3545
-7.2485 39.338 28.3445
-6.7495 39.347 28.472
-6.249 39.361 28.6465
-5.7505 39.373 28.8325
-5.2615 39.3855 28.962
-4.7485 39.388 29.0045
-4.2495 39.383 28.9575
-3.751 39.3755 28.855
-3.254 39.381 28.875
-2.7535 39.392 28.992
-2.255 39.403 29.0655
-1.7505 39.402 29.1055
-1.2485 39.398 29.134
-0.7465 39.3935 29.0745
-0.2415 39.389 28.977
0.2615 39.376 28.8535
0.768 39.3585 28.634
1.262 39.3395 28.381
1.76 39.317 28.0885
2.2565 39.3105 27.9655
2.753 39.3085 27.9375
3.255 39.307 27.9005
3.7535 39.305 27.8825
4.2535 39.3 27.8165
4.753 39.2905 27.6955
8.7505 57.695 18.386
6.7535 57.7125 18.591
-14.7525 56.952 17.3965
-16.256 56.953 17.1595
1.7435 57.7695 20.131
-3.7465 57.776 20.144
-21.752 58.3145 16.187
-17.7485 58.318 15.965
-17.2485 58.307 16.0075
-12.276 58.3695 16.791
-2.743 58.452 19.7355
1.745 58.4575 19.7545
18.821 54.866 1.579
-42.699 54.5195 10.6745
-12.7595 59.0215 15.9985
-6.244 59.1355 18.887
-38.242 71.4095 23.0365
-22.248 59.6465 14.705
2.4795 65.813 7.8985
-38.686 78.4765 -6.4515
19.302 54.1975 9.588
-22.7505 61.0025 13.055
-38.7605 62.2845 26.1815
2.2515 61.8945 16.923
-24.885 70.0725 7.6995
-44.2075 51.1605 5.1955
-39.7545 65.137 26.4495
3.7385 65.5975 9.069
-37.257 69.317 24.4075
1.0725 65.8325 5.24
-8.599 63.7165 1.6605
-16.821 87.7915 -6.478
-25.748 78.927 4.771
-36.163 88.24049 -27.004
-40.5085 48.206 -3.7845
