1491
 -11.733561 13.120057 120.795891
 -22.842979 -23.095394 105.063347
 -21.447819 -23.821081 105.865425
 28.125395 8.992994 97.503624
 17.362755 -10.813107 122.416130
 3.044264 12.956923 121.630417
 -21.060492 -24.175915 104.998299
 -19.691631 -24.741718 106.054420
 -19.379280 -25.089659 104.803650
 -11.942098 13.176437 120.500839
 26.362581 16.018421 91.401329
 17.482613 -20.145666 88.868828
 17.121687 -20.523098 100.087784
 15.703229 -21.689384 95.703537
 -11.750957 13.053903 120.561378
 2.925403 12.347510 121.400040
 18.678909 -19.060926 95.996544
 -28.684464 -17.969355 105.834190
 -30.217211 -16.217253 105.675369
 -29.177378 -17.544399 105.412384
 -29.442112 -16.748493 106.540459
 2.629203 12.340868 121.105682
 26.920197 14.299917 97.506958
 -14.951962 -27.058140 103.672348
 -15.935184 -26.698990 96.659554
 -14.177208 -27.325439 100.873642
 -25.055376 -6.441922 117.164261
 -13.303097 -27.542835 104.505272
 -12.164460 -27.868238 102.471817
 16.759991 -11.151862 122.412582
 -4.430385 -28.452421 105.951988
 -4.035743 -28.577763 105.365601
 13.987053 19.815788 119.385834
 -2.890694 -28.426956 105.811371
 -3.538553 -28.224094 106.594681
 16.827971 -11.585175 122.405411
 16.726763 -11.493507 122.440369
 20.856512 25.325411 99.872284
 16.386761 -11.753525 122.414810
 -10.533074 -28.206270 102.962173
 -1.078595 -28.322172 105.616867
 -1.951926 -28.137884 106.557167
 0.440644 -28.176584 105.274742
 0.682937 -27.994062 106.000313
 -8.844715 -28.462608 100.483376
 -9.014587 -28.394770 104.255089
 -0.333588 -28.003948 106.456314
 -32.167801 -13.862753 104.120407
 -31.846428 -14.429776 101.941826
 -31.273424 -15.177003 103.929558
 2.511947 -27.748306 105.490303
 -33.180275 -12.132023 104.819260
 -33.449528 -11.817186 102.717056
 -32.757103 -12.993709 103.574898
 2.579980 -27.579227 106.143921
 -1.610193 18.014492 121.643059
 -2.031916 18.286484 121.451889
 -1.269819 17.885523 121.426147
 -32.587357 -13.249302 97.577591
 16.459610 -11.934585 122.423958
 -34.470692 -9.748272 104.482208
 -35.004753 -8.561663 103.520836
 -34.228210 -10.355512 102.280945
 4.514349 -27.161665 105.842049
 -33.923950 -10.821863 104.619003
 -27.150902 -4.350470 117.521339
 5.702559 -26.586935 106.460472
 4.028694 -27.087879 106.504517
 -2.258212 18.315395 121.657814
 -3.022438 18.569498 121.619530
 -2.744456 18.585503 121.416199
 5.561930 -26.986883 105.123192
 6.442319 -26.546316 105.786880
 15.997445 -12.636197 122.394272
 15.967659 -12.351280 122.410431
 22.403799 8.061750 116.422531
 -35.868370 -6.297167 103.996124
 -35.948856 -6.191667 102.128052
 -35.479794 -7.470312 100.452614
 7.494008 -25.882135 106.570663
 7.785786 -26.035929 105.785904
 12.405146 32.662830 96.267784
 8.798087 -25.723148 105.160713
 8.996868 -25.421093 106.101959
 9.995968 -25.082718 105.606995
 -1.049767 17.625681 121.630249
 -0.727861 17.411234 121.439438
 0.832400 -0.401566 122.413834
 10.904121 -24.445972 106.226517
 -36.959442 -2.231807 102.669724
 -37.297729 -0.140860 103.514206
 -15.488261 11.811619 120.483383
 11.652588 -24.214142 105.476501
 11.410627 18.732958 119.054283
 9.554708 20.266882 119.135239
 10.421758 18.925104 119.216858
 10.097859 20.285269 118.988091
 -0.710941 17.679060 121.202446
 -0.213567 16.966057 121.248375
 -0.595416 17.184618 121.615295
 -0.384663 16.993874 121.443825
 12.600993 -23.467237 106.226822
 13.221893 -23.302250 105.131119
 15.055316 30.873117 98.261780
 13.765327 -22.818914 105.923965
 -27.560093 -19.432188 102.386322
 -25.977221 -20.856274 103.374886
 -26.749376 -20.074636 104.828590
 14.835864 -21.949804 106.300415
 14.672909 -22.314005 105.150185
 15.788216 -21.360870 105.842308
 10.962288 33.508423 95.285187
 -22.148180 -23.639452 103.759354
 -24.119110 -22.319410 103.632675
 16.003010 -21.354300 104.841469
 17.102137 -20.322779 105.574516
 17.463898 -19.761707 106.344765
 -0.034957 16.338741 121.451950
 -0.278790 16.722429 121.612358
 -0.020724 16.141045 121.658493
 8.428776 21.573723 119.029655
 -20.995220 -24.381599 102.853691
 -20.186964 -24.776690 103.529404
 18.469002 -19.120747 105.294479
 0.389399 30.170631 118.433426
 0.198049 16.169352 121.252396
 19.091188 -18.250446 106.212906
 -20.131855 24.596975 121.435471
 19.469168 -18.058182 105.650879
 -0.504876 -1.148893 122.427246
 -17.648895 -26.055151 102.266762
 -18.810791 -25.514513 102.344055
 -17.808111 -25.944796 96.993874
 20.215271 -17.035128 106.208862
 20.157251 -17.361130 104.996895
 7.517050 21.724804 119.160744
 7.220495 19.441830 119.587151
 20.426624 -16.979082 105.814438
 -28.389597 -18.525967 104.596115
 -29.002588 -17.961260 102.443115
 20.952328 -16.361277 105.651611
 21.536455 -15.727448 105.107666
 21.868795 -15.096976 105.881439
 -14.468142 -27.174662 93.233215
 22.700888 -13.689424 106.313263
 22.517811 -14.342673 104.563553
 23.324070 -12.947329 105.893990
 23.586416 -12.701608 105.307579
 -4.025217 -28.721275 103.986176
 -3.251641 -28.716753 102.984215
 23.956207 -11.930631 105.862137
 24.339994 -10.997927 106.277512
 24.626427 -10.806353 105.388702
 -0.795382 -28.435131 104.527481
 -1.927602 -28.610531 103.702309
 -3.444422 18.763315 121.422188
 6.813407 22.741140 118.993896
 0.450404 -28.270761 104.145004
 -0.597151 -1.697733 122.434799
 24.957893 -9.788665 106.221169
 -20.808645 25.502131 121.140724
 1.118841 -28.209177 102.919411
 25.517250 -8.949495 105.439034
 7.271416 22.786123 118.805756
 25.608456 -8.276958 106.325386
 2.239216 -27.975571 103.348312
 2.097508 -27.928890 104.671234
 26.130480 -7.351471 105.792961
 -4.184655 18.909443 121.345497
 -4.076727 18.756523 121.631088
 26.677109 -5.918083 105.573174
 26.407230 -6.206481 106.317047
 6.173172 28.895664 117.288391
 27.100075 -4.102767 106.140839
 27.136251 -4.465028 105.578316
 7.083851 -26.564564 102.586021
 8.132504 -26.094534 104.481270
 6.948798 -26.520096 104.840019
 27.440336 -3.388406 105.161255
 8.491570 -25.993731 102.804924
 27.473484 -2.787446 105.991814
 27.736141 -2.067057 105.153023
 27.741116 -1.630599 105.763985
 -34.793880 -9.101707 98.005768
 27.826216 -0.524645 106.269676
 -36.752518 4.351202 107.772827
 -37.038563 0.729669 106.471794
 -37.315559 1.528248 105.700325
 -37.229607 2.166093 106.272728
 -37.406590 3.627605 105.740082
 -37.487896 5.355849 104.958908
 -37.305992 5.583632 106.019035
 -37.313057 7.259357 105.320618
 6.314926 21.432266 119.366028
 -0.006353 -12.001513 119.901588
 -37.129807 7.000956 106.331085
 -24.452808 -7.492625 117.251358
 -36.989933 8.989344 105.917076
 -0.755715 -2.185992 122.361267
 18.464151 -19.254396 102.391129
 -21.854179 24.543476 120.672256
 -1.055418 -1.247927 122.378998
 -2.029886 -2.120166 122.426903
 -36.219917 12.348849 106.344688
 -36.484547 11.963074 105.627434
 -36.667488 10.649515 106.072441
 -5.023756 18.825645 121.512062
 -36.079952 13.386976 105.718056
 -35.474953 15.071098 105.988297
 -35.882023 14.270901 105.146027
 -34.964645 16.586533 105.684937
 -35.409039 15.683442 104.918152
 -4.822308 18.980072 121.260178
 23.386282 -13.189627 96.067123
 23.175932 -13.455324 102.524551
 -6.229486 18.663897 121.414421
 -28.551556 -18.431482 97.186897
 -29.526138 -17.376537 97.661995
 -34.545868 17.113565 106.437996
 -34.422367 17.947500 105.423988
 -36.615005 2.751581 108.018173
 -30.496378 -16.181080 95.638351
 -30.136238 -16.666306 102.420425
 -31.030851 -15.557739 101.344162
 -33.639786 19.227673 106.161674
 -33.771862 19.274986 105.450554
 -33.048332 20.488335 105.804970
 -1.987899 -2.666760 122.422928
 -21.279123 23.682873 121.365265
 -31.441719 22.965244 106.044304
 2.465365 -27.956625 101.330811
 27.767944 -2.161691 103.307312
 27.903339 -1.639194 96.995872
 0.166422 15.657194 121.510521
 0.376588 15.470160 121.250114
 -21.698818 23.249071 120.882645
 0.293278 14.934737 121.371246
 0.179428 15.045287 121.624489
 -37.623825 4.654546 101.062096
 -37.594666 4.184913 103.324570
 -27.225893 27.789984 106.373184
 0.141199 14.374949 121.552849
 0.558580 14.942210 121.118271
 -3.323387 -2.835018 122.443695
 10.799678 -24.856426 103.072334
 -3.270800 -2.251028 122.357521
 0.341114 14.138985 121.186066
 -4.706726 -2.566949 122.391869
 0.096653 13.763947 121.325752
 -23.036648 23.622131 121.030663
 0.008725 13.901456 121.605217
 -22.998482 23.538465 120.623817
 -0.192882 13.447533 121.603645
 -20.872044 -12.176060 117.418808
 -33.255035 20.388552 104.242508
 -32.704811 21.504827 97.613403
 -33.538349 20.047853 100.145828
 -0.082292 13.301915 121.327164
 -32.478603 21.714407 104.050209
 -6.046648 -2.262414 122.352570
 -5.566007 -2.780546 122.441078
 27.292183 -0.016032 107.748505
 -21.566788 -11.511841 117.131523
 -20.360622 -12.721666 117.160660
 -0.380922 12.908087 121.409164
 -2.736252 -3.081436 122.395020
 -13.437548 35.805485 106.228653
 -0.543038 12.909517 121.618843
 -29.078630 11.899895 120.449379
 -11.849686 36.223541 106.137871
 -22.315224 22.797888 121.488533
 -22.609411 22.406279 120.865555
 -3.622748 -3.326268 122.377243
 1.101873 -10.059488 120.173279
 -9.847832 36.612331 106.184631
 -9.475197 36.800930 105.223969
 -8.420375 36.935677 105.038956
 -27.084524 28.394058 98.067810
 -8.021263 36.899807 106.011398
 -6.589406 37.112659 104.639168
 -5.943018 37.053623 105.938972
 -24.010006 22.575298 120.657867
 28.096279 1.120136 105.957840
 -25.809372 29.578066 94.646584
 -4.696754 -3.184471 122.442726
 -22.891132 31.697733 99.615494
 -24.279121 22.407921 121.073418
 28.210819 4.090968 106.204292
 28.165749 2.800575 106.274239
 -4.434392 -3.391810 122.396576
 1.531793 25.936111 118.045937
 -29.712973 12.613573 120.109093
 -29.997984 12.443052 120.247940
 -29.868675 12.434218 120.182388
 -29.736750 12.363073 120.147629
 27.894428 8.495367 106.341606
 27.726728 10.190815 105.911293
 27.838036 10.140868 105.019646
 27.324081 11.745792 106.191238
 -21.834045 32.509701 90.703209
 2.947599 10.567019 121.499641
 -2.113449 -11.698364 120.040527
 -36.870842 11.165205 93.215607
 -5.480916 -3.282838 122.400818
 26.784794 13.584573 106.384315
 -29.883314 12.105247 120.161041
 24.676613 19.087404 106.148460
 17.768759 17.766994 119.664925
 26.268648 15.355831 106.234634
 2.752872 10.359009 121.195847
 22.223560 23.218346 105.888145
 23.062630 21.805531 106.345573
 23.930222 20.587652 105.772743
 -1.214234 30.287739 118.893745
 -34.145638 18.925135 97.179207
 2.867174 8.433950 121.296822
 28.377707 2.813044 103.671524
 -31.713041 23.103149 91.892464
 -32.353268 22.212992 87.377937
 26.135197 -4.785028 108.020882
 28.128044 8.497687 103.826920
 21.140341 24.567650 106.183975
 19.999508 25.897696 106.230316
 15.283541 -13.046394 122.389961
 -30.290741 12.335203 120.892120
 14.048719 -14.566870 122.397552
 18.116522 17.556276 118.719276
 18.498602 16.469845 119.760330
 -30.301315 11.591731 120.258888
 -30.605595 24.650309 89.472000
 -30.573912 24.553753 99.364204
 -30.068205 11.822366 120.153259
 -27.537321 -19.451038 96.980270
 2.747849 8.997066 121.164520
 -30.105534 11.315229 120.123230
 -30.233488 11.432310 120.172501
 -25.069681 21.429289 120.651367
 -4.256681 37.114567 105.767281
 -3.042861 37.068787 105.796860
 -3.609158 37.192432 103.958443
 13.227987 -15.081828 122.358551
 2.918592 7.186990 121.298042
 -29.704752 9.678044 120.437141
 -3.605791 -11.246901 120.154274
 22.055079 23.767712 99.885155
 -25.661011 20.798866 120.970901
 15.959472 16.880962 119.119904
 14.898610 18.384386 119.095741
 -16.755234 35.113529 86.619164
 -16.424059 35.092648 98.229248
 -0.060812 36.828568 104.351158
 12.031450 32.595997 105.973114
 13.252335 31.841539 106.038750
 4.962999 35.854527 101.923248
 18.905621 27.057116 106.337059
 -11.033050 36.801647 88.163445
 4.111341 35.987457 104.519218
 16.770729 29.345587 103.608528
 16.757221 29.219242 105.876823
 15.750474 30.008097 106.018631
 -24.162235 20.867359 121.443558
 -0.151471 12.899809 121.188751
 -25.108837 19.675022 121.290062
 16.246830 29.945520 97.427818
 -30.277733 11.043003 120.165756
 13.853283 31.707996 98.285843
 -30.554110 11.197185 120.461609
 -30.446272 11.065333 120.257050
 10.800588 33.360298 104.970932
 11.949360 32.764805 104.108032
 -30.315680 10.535551 120.114182
 -0.901225 12.375796 121.457283
 -0.444857 12.520840 121.257751
 -30.608685 10.720638 120.283485
 -0.941671 12.116901 121.313721
 -5.806984 -11.229671 120.150444
 -4.955963 -12.692574 119.900528
 -0.714616 12.057695 121.205048
 -30.450344 10.749598 120.168793
 -18.207945 -25.340506 106.515938
 10.965334 33.394375 101.760559
 -0.834618 12.627141 121.743172
 -30.793343 10.437351 120.631538
 -14.860415 -26.396351 107.101578
 -30.502069 10.102913 120.146179
 -30.703812 10.024040 120.237617
 -1.276860 11.776523 121.263794
 -16.326591 -26.525444 104.641556
 -16.477304 -26.527390 102.390694
 -1.407835 12.130743 121.634354
 -30.880064 9.873230 120.428276
 25.807505 17.199554 100.890739
 -1.528258 11.883560 121.427544
 -9.953782 -27.678774 106.957619
 25.128876 18.679256 99.573349
 -7.697609 -28.553789 103.947617
 -8.803152 -28.080282 106.352859
 -8.490916 -27.895603 106.951767
 -26.514757 19.619701 120.653214
 -6.058754 -28.678062 103.934509
 -7.280734 -27.831289 107.399643
 -6.131938 -26.403450 110.454941
 -5.342971 -28.159182 106.794594
 -11.716190 -27.923056 104.621101
 -9.907440 -28.206060 104.971672
 -31.962151 -12.940174 107.252762
 -2.193424 11.740198 121.630569
 -1.327455 11.585705 121.157135
 -1.809323 11.477829 121.219299
 22.888752 22.685345 95.024384
 -2.193632 11.488839 121.380936
 -34.802193 -7.473912 107.076622
 23.523285 -10.735532 108.313881
 -29.974030 8.122174 120.269119
 15.444791 -13.362762 120.043053
 -2.805644 11.388672 121.407249
 -33.991791 -9.245457 107.221405
 -25.934048 18.601135 121.529907
 15.025849 -13.514818 119.850151
 -36.201626 -2.974466 107.067375
 -2.341197 11.204332 121.215302
 -30.681076 9.273599 120.125023
 -36.774708 -1.186472 106.462616
 -36.401978 -4.630097 102.589096
 15.019691 -13.714164 119.984573
 -2.706305 11.140356 121.198318
 -36.325569 -4.722810 104.768105
 -0.881350 26.329033 118.324905
 -36.708984 -3.182190 104.814034
 -25.742559 -20.280233 106.930809
 -26.910280 -19.223270 106.950623
 -30.941082 9.117846 120.242683
 13.731307 15.889136 118.991302
 -31.107321 8.878923 120.456993
 -22.194544 -23.163479 106.499825
 -3.073806 11.071477 121.171539
 -20.778328 -23.976936 106.644737
 -26.876966 17.082630 121.295120
 -3.952670 11.160629 121.291367
 -30.857645 8.720496 120.147049
 -3.392575 11.123446 121.255386
 -30.103184 7.935664 120.626884
 14.015003 -13.466993 120.101639
 -30.694883 8.807470 120.114479
 12.160096 26.167597 115.991959
 -25.301470 -21.345852 104.789261
 -4.684737 11.244446 121.425858
 -29.645922 -17.146036 104.589859
 -27.268019 18.591625 120.842133
 -30.688761 -15.841544 104.805748
 14.722524 -13.902520 119.968674
 14.533620 -13.982856 119.824471
 14.653605 -14.179807 120.029060
 14.553418 -14.062022 119.984482
 -7.302771 -1.905484 122.380989
 -4.854923 -28.676588 104.574165
 -1.498931 26.620899 117.980759
 -7.665005 -2.215568 122.435097
 -3.278690 -28.645758 104.662674
 -2.329449 26.529949 118.305801
 -30.884806 7.988065 120.087418
 13.315243 -14.026027 119.863052
 -31.034813 8.247477 120.165222
 -6.563752 -2.877151 122.437241
 -31.205118 7.777569 120.246796
 3.542112 -27.663025 103.482635
 -4.568031 10.984648 121.210861
 0.991713 -27.623247 106.896294
 -8.844548 -1.009527 122.394516
 -5.016162 10.982922 121.262383
 -27.893190 17.584223 120.857697
 5.363433 -27.134792 103.765396
 3.023840 -27.088728 107.164032
 -5.893133 11.144624 121.322563
 19.576836 14.222417 119.764862
 9.419223 -25.529881 104.030525
 4.823273 -26.404921 107.613289
 14.504395 -14.218102 119.967201
 10.476499 -24.949167 104.822716
 14.220079 -14.350736 119.854156
 14.180202 -14.504093 119.964821
 11.928026 -24.183268 104.013527
 -8.741778 -1.866077 122.406830
 -31.315311 7.625890 120.458107
 -5.874444 10.966639 121.186684
 13.946500 -14.977727 120.036438
 -33.783569 -11.155387 96.403740
 -31.064692 7.701601 120.131668
 16.782522 15.571751 119.192085
 15.279369 -22.000216 102.954224
 16.430082 -21.088512 103.770180
 12.963823 -14.524388 120.089714
 9.318284 -24.963230 106.911842
 17.252373 14.563084 119.105515
 -4.242449 9.918358 121.206192
 -4.377875 9.911628 121.311531
 -4.454436 9.969753 121.228416
 13.871297 -14.677680 119.844025
 -7.610859 -2.650101 122.395966
 -4.662509 9.935349 121.213150
 -4.765253 9.920053 121.325722
 10.725778 -24.218637 107.030609
 -4.964873 9.968736 121.247307
 -5.052452 9.895198 121.346283
 13.930242 -14.807294 119.986519
 13.769917 -14.837107 119.971504
 11.830306 -23.662907 106.908714
 -5.365934 9.814525 121.252457
 -28.537245 16.495897 121.192665
 -28.712454 16.028797 120.719170
 13.776678 -22.569263 106.634773
 13.631694 -14.904130 119.813782
 -2.490994 9.269594 121.243256
 -2.132375 9.109898 121.263504
 -2.471467 9.115840 121.423668
 -30.225164 6.706586 120.407867
 14.792342 -21.574667 107.181183
 15.974755 -20.962238 106.589340
 -2.800200 9.431486 121.351372
 -2.856022 9.520699 121.234505
 -3.028017 9.407642 121.449951
 13.756392 -14.988386 119.985596
 -31.142563 7.280835 120.103920
 -1.611070 8.665218 121.225647
 -1.917544 8.817962 121.371803
 -1.861479 8.933548 121.231506
 -31.070765 6.773873 120.081703
 13.561647 -15.073411 119.979614
 -1.248981 8.234456 121.238869
 -1.546794 8.543113 121.350624
 -1.317559 8.149771 121.391441
 13.376966 -15.172744 119.817772
 -31.372993 6.484030 120.273300
 13.447753 -15.258388 119.951653
 19.263988 -17.741909 106.869064
 -24.165903 -22.321884 99.316185
 -31.242455 6.293327 120.127274
 -3.624635 26.746286 118.099480
 -1.953712 8.675043 121.463425
 13.417496 -15.516031 120.041161
 20.295738 -16.367250 107.221291
 -31.509253 6.066431 120.524467
 13.305123 -15.430175 119.925308
 20.096928 13.217613 118.966270
 21.166082 -15.830973 106.341995
 -4.862003 32.269928 115.208969
 -6.075662 32.742592 114.344131
 -9.994058 -0.654310 122.398178
 21.660013 -14.952667 106.739395
 17.845707 13.357121 119.190231
 26.021404 -8.007447 103.230057
 23.615175 -12.119755 106.516251
 -3.202263 26.464949 118.529106
 -28.300009 -9.447032 116.653145
 -4.351102 26.481243 118.553123
 12.157045 -15.056942 119.814331
 -6.378999 -3.248316 122.337440
 -4.956410 26.695015 118.264069
 -0.943413 7.907224 121.222046
 25.238621 -8.535553 107.003571
 -1.020326 7.681812 121.426987
 -0.724760 7.409814 121.251793
 -0.933185 7.773094 121.338943
 -5.960578 26.801689 118.000397
 25.998943 -6.800449 106.872490
 26.710606 -4.986047 106.610809
 13.131207 -15.418794 119.813721
 13.149924 -15.455589 119.914291
 13.119519 -15.616483 119.938759
 12.865975 -15.659451 119.807358
 12.942916 -15.682389 119.948639
 27.436886 -2.201471 106.549973
 -0.602968 6.997317 121.440002
 -37.471508 6.683921 104.378983
 27.925529 1.409505 106.704346
 11.956694 -15.455548 120.151840
 -37.215176 3.760905 106.502220
 -0.343377 6.608928 121.289429
 -36.407135 12.629930 104.289688
 -36.697098 11.758263 101.790291
 -36.968990 5.397861 107.130646
 -36.926388 8.141505 106.634415
 -36.395981 9.871433 107.349976
 -34.108402 18.816080 103.422104
 4.221964 -27.489794 96.757690
 4.367835 -27.474403 101.139511
 12.369996 16.352245 119.229790
 13.817856 14.817991 119.140381
 -35.693947 13.806380 106.691772
 -35.164509 15.312058 106.769073
 12.928724 -15.883605 120.016861
 12.720260 -15.870992 119.935051
 19.373468 -17.049294 107.834938
 12.389834 -16.052078 119.804230
 -31.612213 23.077353 102.140976
 12.561590 -16.151299 119.991409
 -3.299253 9.721937 121.255882
 -3.444315 9.694979 121.386620
 -29.352961 14.705784 120.748306
 -32.933937 20.205896 106.712791
 -32.215580 21.608444 106.406418
 -32.348297 21.734982 105.551544
 12.198625 -16.306366 119.976540
 -31.301329 22.769739 106.829124
 -30.693882 23.869514 106.396500
 -3.891279 9.818275 121.250427
 -3.999051 9.720123 121.411728
 11.835976 -16.593136 119.977287
 12.087883 -16.554394 120.042892
 -28.390640 26.416380 106.826080
 11.717524 -16.894289 120.032616
 -26.172819 28.734228 106.564690
 10.861252 -16.152370 119.823799
 10.555878 -16.549829 120.062592
 14.985091 13.677633 118.967728
 -29.886311 13.408271 120.779404
 -21.055820 32.556625 106.147026
 -21.882034 31.865000 106.792229
 14.854013 12.611776 119.141716
 15.667919 11.868046 119.003410
 -4.747716 9.735451 121.443153
 -5.271192 9.704959 121.415657
 -18.567429 33.823624 106.453857
 -5.999405 9.377131 121.457886
 11.397917 -16.864893 119.849472
 -5.813081 9.613744 121.353729
 11.289616 -17.016201 119.981300
 -5.924054 9.659592 121.235260
 -14.927260 35.188301 106.757896
 11.107994 -17.392693 120.063065
 10.976241 -17.235203 119.964180
 10.934813 -17.198114 119.817055
 12.410925 13.208224 119.515732
 -8.582009 36.713070 106.661545
 -6.995161 36.882034 106.638794
 -6.139269 36.997074 106.452362
 -12.156826 -17.671013 117.171394
 -3.370323 6.789439 121.172310
 -4.111704 7.006250 121.175377
 -3.452076 6.496337 121.257927
 9.504638 -17.142908 119.833870
 -4.675820 6.829062 121.244400
 -4.409401 6.396454 121.289673
 27.852127 10.387486 102.698059
 27.989536 5.060842 106.862328
 27.935102 6.709222 106.759369
 -4.848369 7.083471 121.164078
 27.518919 10.074940 106.746124
 -5.388418 6.901444 121.207680
 10.794907 -17.372944 119.821907
 10.765800 -17.502157 119.945900
 11.068571 -17.279419 120.014053
 21.628836 7.814912 118.273628
 -6.047208 6.320864 121.260284
 10.521255 -17.647364 119.939384
 25.546484 17.118561 106.341759
 10.281978 -17.689693 119.803604
 10.361248 -17.687862 119.974037
 2.928364 5.860996 121.323853
 24.800247 18.472139 106.728638
 10.584950 -17.774271 120.023590
 10.258207 -17.855877 119.976173
 -16.610670 -15.520263 117.371902
 10.019370 -17.886080 119.846214
 10.044654 -17.937416 119.981422
 10.195791 -18.062389 120.048210
 24.008253 20.160603 106.517380
 9.698425 -18.078630 119.545662
 -19.591711 -25.059059 92.360222
 -17.806801 -14.718278 117.351227
 2.887805 4.802733 121.225945
 1.360585 36.561958 105.527969
 9.496583 -17.345421 120.183044
 21.834375 23.442713 106.701187
 12.528521 17.527193 119.023697
 21.810097 6.415522 118.210938
 -6.696496 11.436241 120.814331
 -2.974770 36.929710 106.757889
 -1.642135 36.915474 106.170769
 -7.910643 12.203599 120.745644
 -7.491071 11.564127 120.826416
 11.024907 25.751085 122.011742
 9.987218 26.467377 121.967163
 9.961119 -18.074379 120.035797
 9.722949 -18.057209 119.849304
 9.777606 -18.087582 120.009499
 21.923382 5.300755 118.072342
 5.898691 35.259632 106.537048
 -0.085829 36.654610 106.586823
 -14.009152 -16.945030 117.177101
 1.936355 36.299011 106.679367
 3.048723 36.151558 105.951637
 8.278134 -17.978165 119.905586
 2.891223 3.652080 121.324371
 4.679598 35.667976 106.391403
 -26.385847 29.178499 87.666473
 13.206288 31.697229 106.653801
 21.881029 3.521274 118.288948
 -8.668959 12.443344 120.730179
 16.614286 29.107393 106.657394
 6.452671 28.386978 122.079323
 -15.168674 -16.364918 117.289055
 -9.177195 12.428008 120.731812
 8.976100 27.086002 121.988945
 2.798136 2.730200 121.351768
 9.827686 -18.308592 120.053368
 -14.390792 -16.721752 117.417259
 -15.472892 -26.794785 105.163483
 -8.253884 11.970560 120.823601
 -14.491437 -27.140535 105.035271
 -7.891778 11.586740 120.815453
 -12.469971 -27.704851 105.090675
 -8.295371 11.730989 120.869194
 9.665030 -18.259085 120.000877
 -8.102962 11.480346 120.881027
 -15.931266 -15.981106 117.113144
 10.389145 33.358562 106.496918
 2.698052 2.394161 121.229309
 -6.464990 -28.596754 104.842323
 -8.861232 12.069883 120.783592
 9.175606 -18.393717 119.831390
 9.260780 -18.431934 119.997818
 2.553302 1.718023 121.229759
 9.379156 -18.563589 120.065575
 11.710091 32.643642 106.632210
 -8.638021 11.844522 120.863831
 -17.191366 -25.297350 107.635887
 -16.078920 -25.923927 107.240784
 -9.099006 12.016903 120.852196
 2.405743 1.240003 121.220299
 2.164453 0.603297 121.288216
 -6.554646 10.958407 120.859016
 -6.178880 10.984329 120.858772
 8.488510 -18.881683 119.986771
 -6.826087 11.140367 120.858078
 -6.320342 10.864256 120.903793
 -12.231093 -18.798759 117.488220
 8.979394 17.502491 119.611542
 -7.383641 11.215535 120.884308
 -6.794609 10.985160 120.884056
 -37.606369 3.413617 96.771019
 -0.161539 6.068967 121.234741
 -0.343250 6.309235 121.453781
 -37.259266 0.034633 105.114708
 -7.879917 11.244308 120.879471
 13.771705 23.349741 118.159782
 -0.125916 5.648014 121.399811
 8.233562 -18.945139 119.820961
 -35.228195 -5.747779 107.578568
 -0.061058 5.364741 121.245461
 -9.437199 12.731710 120.741768
 -9.643314 12.935649 120.742859
 -35.765564 -4.405416 107.283020
 -9.639327 12.773131 120.845566
 7.246256 -18.572136 119.916611
 -9.446562 12.473521 120.846344
 -36.404385 -1.256439 107.459267
 -0.051266 5.020348 121.424194
 -36.576309 0.401266 107.603951
 -9.236768 12.205974 120.775192
 -9.356755 12.195929 120.855263
 -11.737655 12.814302 120.649109
 -11.752111 12.755476 120.794090
 -2.103600 -28.527443 105.026764
 -2.697886 6.312274 121.204529
 -2.429734 5.652248 121.287796
 -2.203327 5.833005 121.212547
 -12.016985 12.670792 120.560364
 -23.104740 -22.171423 107.245842
 -11.895176 12.377319 120.675262
 -11.892153 12.380115 120.854637
 2.805740 29.744406 122.024063
 -1.932581 5.366176 121.221054
 4.007398 -27.488867 104.734146
 -19.269285 -24.674118 106.926025
 8.731511 -18.889908 120.045052
 9.011985 -18.857323 120.080750
 -1.978890 4.970998 121.304138
 -12.351511 11.735806 120.566818
 -21.588501 -23.116831 107.418030
 9.614959 -24.339403 107.967232
 -12.045602 12.044429 120.634422
 -2.397808 4.415474 121.371841
 -3.196412 5.776756 121.318016
 8.050603 -19.225760 119.988861
 8.028439 -19.403606 120.072945
 -11.962649 11.969303 120.819794
 0.002453 4.456678 121.244385
 7.694137 -19.262276 119.830933
 7.730123 -19.299389 119.959023
 -0.019664 4.207236 121.437592
 -11.977323 11.589203 120.678085
 -11.930618 11.574586 120.845985
 13.710859 -23.088533 103.648918
 -11.951390 11.187208 120.805023
 -0.076176 3.553444 121.426163
 -12.131031 10.890673 120.682983
 -0.003903 3.760116 121.248901
 7.515541 -19.453283 119.975731
 -28.104847 -17.836594 107.273376
 -12.580743 9.770475 120.642448
 7.299587 -19.455990 119.831429
 7.342329 -19.473814 119.978119
 -1.729459 4.760906 121.235970
 7.921635 -25.130264 107.925278
 7.246730 -19.625887 119.987122
 -12.056784 9.710558 120.847145
 -1.890079 4.157513 121.345322
 7.021887 -19.636456 119.927963
 6.961138 -19.625174 119.802345
 -12.245211 9.066410 120.762161
 6.675374 -19.763638 119.620438
 17.278782 -20.318983 104.329384
 -2.793758 4.879240 121.387474
 19.385981 -18.273561 104.343491
 7.056579 -19.913887 120.036499
 -30.355104 5.600119 120.570259
 6.995166 -19.802387 119.938995
 -1.548956 3.875381 121.240089
 -1.657163 3.538321 121.342499
 -2.001273 3.245855 121.440704
 -0.958286 -27.662657 107.532410
 -0.059998 30.399448 122.017761
 6.252759 -25.564171 108.384872
 -2.723031 4.181741 121.458603
 26.172346 -7.513721 105.057274
 27.053434 -4.929160 105.041473
 6.494376 -25.972759 107.311501
 11.079473 25.341682 118.874962
 -31.461632 4.622191 120.241409
 -12.152815 8.268373 120.869057
 -37.434433 1.537274 104.805496
 -31.274315 4.146720 120.099777
 -37.516678 3.424300 104.871269
 -2.610056 3.282066 121.420845
 -12.282073 7.522880 120.853333
 -2.698242 3.620928 121.446083
 13.074027 -22.576942 107.557709
 -19.007706 -21.744604 112.254128
 -30.377790 4.237159 120.449219
 -37.131035 9.215730 104.820015
 -36.830231 10.733896 105.021011
 3.195675 24.531933 118.985718
 6.828837 -18.915424 120.249168
 6.114271 -19.091339 119.837799
 16.226042 -20.303905 107.458298
 17.524446 -19.131681 107.479324
 3.450506 -26.498987 108.279686
 12.546197 24.303146 118.523445
 13.950057 22.829460 118.950241
 -4.068234 6.011920 121.349098
 -3.587685 5.790183 121.360710
 5.529004 22.995115 119.155602
 21.990499 -14.136889 107.237450
 -3.135281 5.332639 121.383125
 -3.557016 5.594287 121.457047
 23.002468 -12.387647 107.478790
 -3.095320 5.101681 121.469086
 24.139208 -10.650853 107.169983
 -4.016796 5.841273 121.453148
 -30.324703 2.533101 120.392097
 2.139588 -26.854347 108.180771
 4.205582 23.908806 119.087677
 -25.357067 22.720716 115.804573
 26.109573 -5.807744 107.390137
 26.819216 -3.952379 107.056190
 -31.422737 2.934600 120.142395
 0.456386 -27.151592 108.233124
 27.528528 -0.894324 106.962784
 27.099012 -2.154723 107.389252
 -4.939934 6.107785 121.334702
 -4.503281 5.970295 121.464149
 -5.021309 5.917529 121.468452
 -36.963654 2.349098 107.088638
 3.006074 24.025171 119.184151
 -30.217352 0.942900 120.483765
 3.902421 22.452942 119.432556
 -36.253490 11.165407 107.078461
 -35.733543 12.751778 107.381630
 -31.411526 2.038679 120.193886
 -33.749599 18.287346 107.143768
 -5.751137 5.936604 121.315277
 -5.535155 5.838031 121.405594
 -3.106504 -13.290959 119.762184
 -5.952502 5.557226 121.416199
 -31.214296 1.091142 120.075653
 -30.101011 24.221285 107.157631
 -29.333168 25.225029 107.081940
 -2.864961 4.660935 121.509293
 20.109869 26.199640 99.863060
 7.272702 23.401760 118.094421
 8.471735 22.507643 118.233917
 -27.048634 27.643225 107.136993
 -31.275860 0.393695 120.240440
 8.372518 22.747885 117.924377
 -25.758657 28.757551 107.300148
 -24.961479 29.638239 106.863358
 -3.663661 30.801325 122.048622
 -23.781176 30.555229 106.857597
 -31.492970 1.482207 120.473129
 -31.332989 0.023291 120.534966
 -20.156097 32.930031 106.718941
 -0.251593 3.182402 121.448166
 0.959492 25.164892 119.019386
 -19.128258 33.282154 107.214828
 -0.102073 3.379291 121.249474
 -0.276083 3.139798 121.244987
 -18.059452 33.928726 106.876099
 -16.660673 34.510742 106.881790
 -31.031153 -0.210038 120.058029
 -0.529335 2.978471 121.403107
 -2.591792 -27.526438 108.209053
 -0.491957 3.011917 121.226990
 -13.424335 35.638573 106.879913
 -0.779690 2.997700 121.241188
 -11.891993 36.050121 106.826691
 -0.860706 2.886814 121.448730
 -1.148736 2.952112 121.419167
 -1.143666 3.174513 121.234177
 -9.894923 36.371117 107.092888
 -1.360767 3.384921 121.227707
 -1.525602 3.167987 121.397331
 -9.074828 -22.402489 117.247070
 -31.597883 4.353196 120.522697
 -4.126427 -27.694771 107.957687
 28.046562 3.477613 106.752617
 -1.515017 2.819820 121.535759
 27.804382 3.907913 107.341858
 -16.340740 9.994693 120.497345
 27.538155 8.655393 107.259171
 9.643359 21.661289 118.208870
 10.725265 20.761040 118.077171
 -31.594404 2.910232 120.559441
 26.926777 11.742913 107.302422
 26.422899 13.618716 107.306793
 -31.509783 2.708290 120.284073
 26.099335 15.362040 106.770142
 25.392811 16.837212 107.053162
 0.907292 24.786755 119.174660
 1.611499 23.851337 119.335693
 -2.644102 2.479205 121.477974
 -32.513866 -13.191925 105.132843
 24.032042 19.601732 107.178146
 24.534321 18.122683 107.618172
 23.252945 21.232750 106.862427
 22.539412 22.087526 107.194077
 -1.322149 24.435165 119.346703
 -5.656677 -13.467957 119.729721
 20.774727 24.662096 106.945061
 21.542049 0.790199 120.159607
 21.629028 0.392592 120.235886
 21.358746 -0.129234 120.120026
 19.179018 26.389969 107.135208
 -5.352663 36.943672 106.785431
 -4.245315 37.018196 106.494522
 -4.366099 36.811630 107.184074
 -1.820447 36.795582 106.954292
 -14.258297 -21.002165 117.264435
 -16.185871 8.684260 120.547234
 21.378517 -1.308757 120.234833
 -5.497722 30.814457 121.996376
 3.724130 35.809067 107.026642
 -29.205303 16.758633 116.156967
 21.302822 -1.029604 120.162300
 21.375525 -1.921355 120.425179
 10.895144 20.304306 118.472961
 17.955408 27.733597 106.961411
 20.630392 0.404977 120.282440
 20.359074 -1.345446 120.391495
 15.585459 29.599358 107.424141
 14.839308 30.497330 106.773117
 -33.526749 -6.659465 110.269920
 12.052521 19.404270 118.145233
 4.374904 -27.338917 105.309219
 -2.941072 3.110997 121.479836
 8.855906 33.975811 106.915154
 21.157652 -1.143937 120.109795
 12.160851 32.151905 107.188744
 -3.269294 2.373471 121.434349
 -12.733282 7.522349 120.715218
 -30.466513 -14.017904 108.732727
 -3.274940 2.621829 121.493973
 21.234022 -2.138882 120.245064
 -3.643427 2.295677 121.472832
 5.627252 -19.431021 120.046661
 21.146059 -1.504802 120.134270
 -13.038593 -26.681160 107.712608
 -3.564201 1.327814 121.470894
 21.126772 -1.944176 120.129181
 8.259519 22.399914 118.556587
 -1.138662 25.626913 119.019165
 -29.954231 -14.766184 108.668045
 -29.373688 -15.883003 108.122192
 19.550079 15.501551 122.087250
 -0.990304 25.232931 119.157234
 4.749610 -19.707649 119.891090
 -4.021707 1.847352 121.438301
 6.664817 -19.815563 119.846237
 20.065102 -2.637315 120.376602
 20.594666 12.998055 122.113228
 -4.178266 2.064584 121.484451
 6.627415 -20.002573 119.933975
 21.095760 -2.354336 120.169838
 20.963699 -2.239092 120.127792
 20.925110 -2.676774 120.132126
 6.297720 -19.934086 119.821220
 6.275316 -20.068581 119.972946
 20.907993 -3.360840 120.251106
 6.553145 -20.207653 120.062759
 -4.740558 2.016997 121.486221
 21.027193 -3.341933 120.445198
 6.154292 -20.240555 119.981682
 5.941343 -20.468031 120.041580
 -5.345353 2.173845 121.497406
 -5.347033 1.957487 121.441391
 6.022776 -20.077782 119.939819
 5.968233 -20.065601 119.814583
 20.768784 -2.885979 120.114624
 5.928521 -20.227423 119.954018
 5.736663 -20.210659 119.816048
 5.774816 -20.250006 119.948753
 5.802568 -20.391369 119.944748
 -5.911295 2.484571 121.475197
 21.032150 11.665590 122.032875
 5.496519 -20.388170 119.832787
 5.138906 -20.486376 119.838913
 19.506487 13.123357 122.076378
 20.023914 11.649486 122.117043
 20.877556 -3.147280 120.148712
 20.609003 -3.871399 120.123398
 19.705654 -3.907506 120.440575
 -20.190981 -23.836824 107.646576
 20.625242 -4.656995 120.475365
 -18.714680 -24.524139 107.813980
 -4.658513 1.293745 121.450577
 5.435999 -20.589956 119.940773
 5.335161 -20.747686 120.066422
 5.022521 -20.662104 119.948242
 4.748764 -20.928432 120.024323
 -24.379589 -21.107363 107.503967
 4.796729 -20.796179 119.933350
 4.775726 -20.622829 119.823555
 4.796104 -20.663496 119.943184
 -12.368279 6.540789 120.835457
 21.498201 9.900867 122.026245
 4.463679 -20.794184 119.853424
 -20.213945 -12.794031 117.436386
 20.425171 -4.875133 120.241257
 3.908403 -20.892862 119.807098
 4.012489 -20.896751 119.912651
 -30.226610 -15.218928 107.564125
 -5.779751 25.487007 119.162041
 -4.532874 0.451625 121.495842
 -4.531414 24.677017 119.358025
 -5.682955 -27.706768 107.915016
 20.324074 -4.513594 120.108315
 4.231318 -21.014624 119.969879
 3.861594 -21.247263 120.052078
 -2.224686 -27.845304 107.408096
 3.830024 -21.080372 120.009850
 3.643417 -21.033579 119.983116
 -24.934498 -20.188772 108.339142
 20.170420 -5.243951 120.116173
 20.129827 -4.979044 120.062958
 3.114123 -20.326309 119.954353
 20.537292 9.755761 122.106262
 -21.320490 -13.375843 117.678070
 20.068972 -6.165918 120.473846
 19.982702 -6.091969 120.227470
 3.369401 -21.068729 119.926476
 3.403123 -21.220425 119.994438
 -5.811966 1.379721 121.465042
 2.983000 -21.321232 119.960365
 2.978209 -21.183525 119.821754
 19.807955 -6.239107 120.120377
 21.680784 8.941748 122.231621
 19.365244 -7.493645 120.224365
 2.111357 -20.695690 120.074913
 21.866632 7.813521 122.207924
 2.662104 -21.643623 120.064095
 13.973106 16.936113 118.226044
 19.239231 -7.987306 120.418495
 2.425739 -21.435293 119.935135
 2.417057 -21.344852 119.762840
 -5.227787 0.036804 121.542953
 2.115897 -21.628740 119.985313
 -16.083441 7.636733 120.512688
 24.418724 -9.407158 107.903519
 1.233585 -22.024761 120.047592
 20.896147 7.960382 122.128281
 1.031323 -20.959696 120.046181
 25.452257 -7.322100 107.646027
 -32.687733 4.518882 115.324249
 0.643535 -20.945908 119.836395
 18.538408 11.604768 119.227654
 19.370876 -5.010344 120.633125
 -32.687691 3.474605 115.333450
 2.000530 -21.469503 119.842804
 22.047699 6.388974 122.037514
 18.838875 -6.285414 120.583969
 1.649490 -21.651480 119.931076
 1.534472 -21.594326 119.787621
 19.048649 9.852858 119.224213
 1.705313 -21.804752 119.975151
 -6.802320 30.761208 121.938713
 1.128897 -21.856380 119.934296
 -32.711880 2.262788 115.180710
 21.085064 6.534010 122.142410
 -35.107002 14.363049 107.706703
 0.642321 -21.783115 119.749306
 0.423400 -21.887747 119.911751
 0.169269 -22.137253 119.971336
 -32.637352 20.134621 107.543221
 -0.738118 -21.247328 119.975883
 -26.620287 -18.913046 107.968452
 21.184933 4.894564 122.100021
 -0.012629 -21.898960 119.784203
 -0.069070 -22.037130 119.918571
 -9.055407 30.485088 121.108559
 -22.865101 31.001280 107.335365
 -20.287622 32.496227 107.557358
 14.983171 15.405029 118.126877
 -0.881991 -22.042990 119.782776
 -0.688211 -22.083359 119.930382
 -16.856825 6.552299 120.540489
 22.101274 2.864171 122.191147
 13.206382 10.881552 119.548340
 -36.114510 -0.646753 108.382736
 -11.459887 35.951920 107.383057
 -7.948327 36.567818 107.301147
 21.177498 3.442026 122.012581
 -6.346986 36.649822 107.433540
 27.680563 2.183814 107.433838
 -35.931736 -2.531977 107.995728
 27.668409 6.179749 107.509979
 16.346445 12.759791 118.022339
 15.821074 10.135795 119.107208
 -1.202091 -21.444471 120.332603
 -2.476973 -21.567589 120.233917
 -2.585349 -21.421272 119.854332
 -8.657345 29.451637 121.659821
 -9.886304 29.269121 121.930740
 21.947155 0.903398 122.183273
 25.808779 15.321636 107.444641
 9.538324 -2.711925 120.099304
 -3.796267 -21.555227 119.965317
 21.149366 2.178488 122.145538
 8.243492 -0.172144 120.331352
 -12.525596 29.681557 121.300766
 23.260052 20.711918 107.473190
 -35.400791 -4.307948 108.208076
 21.417362 23.437323 107.523491
 -4.994174 -21.561823 119.958870
 7.446951 -0.424070 120.228729
 -2.662487 36.683411 107.419540
 -34.605831 -5.698218 108.944107
 -0.847477 36.501846 107.496269
 0.808515 36.352470 107.282890
 5.598122 35.178173 107.288239
 20.971426 0.198241 122.228493
 7.102287 34.703869 107.077087
 -5.527936 -21.681791 120.322021
 -6.523902 -21.516788 119.996864
 2.252454 36.076111 107.311516
 -12.563559 2.532460 120.790947
 -12.107906 2.049077 120.890320
 -12.276434 2.918838 120.856110
 13.877779 30.813932 107.550842
 20.392342 -6.895643 116.391594
 -0.411274 -22.376301 120.069847
 -12.003766 1.442585 120.882523
 5.056430 24.627268 118.022346
 6.266474 23.967607 118.127487
 13.702418 23.549772 122.035896
 16.592682 28.534559 107.778038
 -1.488679 -22.363855 119.975021
 -34.048199 -7.021578 109.104683
 -34.611172 -6.916593 108.067192
 19.390436 8.218563 119.196449
 -1.367300 -22.233351 119.950607
 10.625895 32.954823 107.374504
 -12.757851 4.817523 120.770996
 -1.780771 -22.161795 119.807388
 -2.237162 -22.266960 119.928864
 -34.042725 -8.239784 108.131714
 8.046638 -1.276687 120.178650
 -2.750829 11.665129 121.823647
 6.787813 -19.031469 120.662560
 -2.611054 11.681376 122.004158
 -2.253700 11.781467 121.839149
 13.748852 -10.412697 116.591911
 13.975070 -10.344643 116.582481
 14.181200 -9.621490 116.671326
 -1.999343 11.855518 122.024147
 -24.512060 3.481440 119.262886
 -2.504933 -22.654800 120.067734
 14.300182 -10.301210 116.883621
 -1.634365 12.056272 121.839325
 14.289360 -9.816308 116.592148
 -1.414709 12.136395 122.043846
 -11.291196 21.196655 119.773491
 14.606367 -8.076267 117.889359
 -1.106820 12.403829 121.848503
 14.578436 22.660465 122.049156
 15.271757 -8.846988 116.891357
 -10.855916 21.040863 119.697723
 -0.780752 12.649499 122.032707
 -2.836614 -22.254610 119.807632
 15.302047 -6.629597 118.088936
 14.380472 -9.096661 116.821243
 14.637445 -9.573248 116.643127
 -0.392192 13.195399 121.820419
 -0.223966 13.289386 122.064941
 14.761120 -9.111471 116.597870
 16.452845 9.119273 119.012390
 3.017403 10.206559 121.811058
 -9.378169 19.901997 119.770508
 -9.264979 20.329193 119.708206
 9.318758 -18.951803 120.738838
 -2.885968 -22.423780 119.945084
 -8.368945 20.349052 119.762978
 16.285778 7.681168 119.112869
 3.073769 13.159048 121.832733
 3.041646 13.201636 122.013763
 18.791258 -10.212317 116.137146
 -11.845966 23.310268 119.363022
 15.867990 -5.849682 117.806297
 -10.981141 -27.079668 107.946663
 -9.434288 21.686165 119.526558
 -9.115059 22.320671 119.582314
 -3.283571 -22.601973 119.987999
 14.910055 -8.607662 116.665535
 -33.392292 -9.712710 108.106491
 -9.808497 22.562441 119.637589
 15.094262 -7.958678 116.870445
 -0.040856 13.868438 121.825447
 15.030860 -8.928758 116.635651
 0.034549 13.793270 122.068192
 -8.554397 23.610918 119.506523
 4.595181 13.653247 120.271843
 15.246218 -8.390720 116.602882
 11.643767 -17.369482 120.994576
 15.611717 -8.075050 116.672638
 -12.323839 4.577358 120.875687
 4.965463 14.735250 120.246323
 15.426305 -7.751244 116.660004
 15.790031 -7.483455 116.609703
 -8.875004 19.934437 119.783157
 0.138736 14.683976 121.826347
 0.178209 14.373501 122.023346
 -31.031090 -13.967151 107.802620
 0.242944 15.082432 122.026276
 0.131007 15.545931 121.839401
 16.276976 -7.143143 116.858727
 -6.498304 20.488371 119.815933
 11.674401 -15.833177 120.612656
 0.210401 15.622593 122.022507
 -0.007263 16.148577 121.845840
 0.066670 16.184225 122.019524
 19.522732 6.877898 119.091545
 16.049768 -5.003715 118.152641
 -7.492537 21.280766 119.615997
 16.358206 -4.996937 117.540756
 16.621500 -4.023746 117.868515
 12.975344 -16.258530 120.822128
 -32.405579 -11.794908 107.840752
 -4.864742 18.783501 121.819923
 -5.309222 18.905231 122.051788
 15.812053 -6.740600 116.832581
 16.327097 -6.759639 116.662354
 -4.240864 18.911053 122.052765
 -4.118574 18.767593 121.869858
 16.096111 -6.463913 116.670532
 -3.462320 18.661423 121.827179
 -3.516239 18.755974 121.997581
 16.608780 -5.791051 116.626686
 -24.741316 6.087554 119.271317
 -2.763405 18.500715 121.837463
 -5.459386 20.117893 119.938431
 13.009602 23.510433 119.668968
 -2.674865 18.563225 122.006729
 -5.731122 21.616615 119.592392
 -1.064630 17.667879 121.844460
 -1.493766 17.974133 121.832245
 16.374651 -5.526936 116.842461
 -1.308815 17.986485 122.037552
 -0.708180 17.482098 122.023972
 17.063438 -5.150328 116.678581
 -0.580407 17.192350 121.832024
 -0.195659 16.595394 121.845856
 -0.141637 16.813601 122.074677
 16.845051 7.100517 118.988831
 13.969693 -15.338917 120.757576
 16.955355 -2.715636 118.104324
 12.073532 24.361897 119.535873
 -2.064063 18.256216 121.856789
 17.026249 -5.547354 116.831123
 15.010930 -14.293980 120.844681
 17.353424 -1.318894 118.091454
 -1.873149 18.269150 122.014969
 16.607365 -5.425707 116.657684
 -3.740818 -22.435698 119.945518
 -4.099400 -22.324141 119.777573
 8.873909 -2.532140 120.165047
 14.420937 -13.173880 120.515114
 2.973141 14.517953 122.023407
 17.101597 -4.162689 116.695755
 3.052206 14.635755 121.816536
 16.961432 -4.059234 116.870392
 -4.437040 -22.439497 119.896416
 2.942807 15.213351 121.849266
 16.011305 -13.166163 121.058304
 -29.005360 8.653967 119.371887
 17.509068 -4.377146 116.862305
 2.838983 15.443544 122.036156
 2.686127 16.103809 121.845932
 2.590166 16.262005 122.041504
 17.424154 -4.006609 116.669136
 17.677261 0.218809 118.110306
 17.869766 0.516553 117.818825
 -4.494690 -22.770254 120.103920
 1.847881 18.067327 121.820267
 17.465521 -4.251230 116.719070
 17.088104 -11.767498 121.019760
 16.616508 -12.294822 120.549492
 2.305165 17.094013 121.871689
 -4.373447 -22.599060 119.955421
 17.717598 -3.702121 116.832199
 2.267315 17.070869 122.077843
 17.680134 -3.427505 116.691414
 1.754716 18.159882 122.022766
 17.402132 -3.021719 116.791420
 -30.504156 10.102654 118.813820
 17.605501 -2.934628 116.688522
 -15.472552 26.367485 119.703400
 17.963196 -3.015413 116.875511
 17.748016 -2.965759 116.674210
 17.901787 -2.904819 116.723778
 17.897259 -2.597964 116.688362
 1.075473 19.314259 121.817177
 1.427774 18.856007 121.830200
 0.593879 19.670998 121.831718
 1.343764 18.962318 122.025871
 1.079024 19.324795 122.041252
 0.696674 19.584410 122.038765
 -4.146928 -4.377973 120.920830
 -28.598043 10.121310 119.309219
 -5.259826 -22.322973 119.805809
 17.526257 -2.284242 116.949539
 18.125364 -2.185116 116.802986
 17.835426 -1.457885 116.820305
 17.937893 -1.980958 116.700325
 -4.053261 21.129211 121.854118
 -3.209018 21.028168 121.839638
 -4.218281 21.067995 121.990837
 -5.540421 -22.465546 119.963669
 16.749027 5.624346 119.040970
 -4.691850 -3.699642 121.185440
 -30.217667 11.151305 118.904297
 18.237991 -1.227756 116.723175
 18.056168 -1.073551 116.740509
 18.460043 -1.052771 116.874283
 -4.004825 -3.956251 121.089401
 -3.232348 20.930111 122.048111
 -4.552719 -3.620344 121.260811
 21.335339 -1.393804 118.332642
 -2.209723 20.826033 121.823929
 -2.296358 20.782658 122.003197
 18.205551 0.489036 116.855652
 -28.177738 11.923986 119.437866
 -3.034638 -3.984907 121.022499
 -13.706650 27.018059 119.626518
 -4.794823 21.168940 121.815369
 18.338562 -0.197439 116.718956
 18.516752 -0.244165 116.744164
 -27.950657 11.613692 119.105141
 -3.647292 -3.679070 121.238815
 14.421586 21.284386 121.606049
 18.781162 0.645094 116.910721
 18.629309 0.834737 116.760078
 18.422485 1.018893 116.773788
 -2.925216 -3.552681 121.257195
 -2.400369 -3.525253 121.153954
 -1.519906 20.524652 122.074257
 -1.302994 20.551550 121.865303
 -0.871743 20.317991 122.054832
 -11.674899 27.715136 119.651611
 -0.088698 19.988663 122.010765
 -0.367723 20.164753 121.836700
 -1.510552 -3.730027 120.882874
 -5.540299 -22.635456 119.994003
 -27.549042 12.847374 119.153938
 13.675419 22.104097 121.748039
 -0.829612 -3.029562 121.006096
 -2.465595 -3.436379 121.295563
 -1.823963 -3.123748 121.264297
 -1.643960 -3.148071 121.152237
 -1.015067 -2.763909 121.210907
 -0.650785 -2.667615 121.091576
 -0.601602 -2.532321 121.253975
 -27.270372 1.497697 117.822311
 -0.195726 -2.479834 121.056854
 -10.471251 28.259672 119.832703
 -0.075163 -2.182643 121.253670
 0.050013 -2.962977 120.814575
 0.428376 -2.184927 120.971771
 0.983545 -2.302175 120.848068
 0.480967 -1.829971 121.073563
 -27.229105 2.221933 118.083725
 -5.747328 -22.734680 120.067322
 0.541243 -1.683063 121.253136
 -27.232584 3.585729 118.164635
 -9.898496 28.122269 119.620934
 1.428884 -1.317983 120.938835
 1.803822 -2.122532 120.840118
 1.535950 -2.402767 120.800354
 18.726976 17.093269 122.060539
 -1.764083 26.238321 118.629356
 14.278669 9.231540 119.452103
 -7.893626 28.480188 119.642090
 -6.650417 28.698175 119.710999
 0.991439 -1.230322 121.260857
 1.242936 -1.027947 121.063965
 1.701427 -0.504752 120.991005
 2.874222 -1.001962 120.811325
 -28.657906 5.929668 117.964890
 -28.425501 6.453695 117.238533
 -27.395016 4.481983 117.893799
 -4.814579 28.814995 119.776649
 1.598305 -0.403157 121.069893
 1.534194 -0.470669 121.263908
 10.093131 25.099438 121.681931
 2.295303 -0.055034 120.909859
 1.986692 0.228040 121.074059
 2.232697 0.473700 120.993378
 14.694435 6.752642 119.445663
 -0.560383 26.096466 118.594391
 -27.255241 5.222130 118.113808
 -27.143507 6.504104 118.135338
 -28.299515 1.484486 116.857536
 -28.233044 2.057544 116.704979
 -28.422647 2.993171 116.900932
 -28.267950 3.622572 116.706749
 -27.797152 0.943366 116.663933
 12.066238 24.965179 121.970108
 -23.657084 12.433453 119.207039
 -28.072399 2.317625 116.650291
 -6.903770 -27.328693 108.616638
 -27.695099 2.034016 116.851387
 -21.357208 14.762786 119.407288
 -27.914505 2.695025 116.699310
 -27.801540 4.051800 116.819595
 -26.984741 8.118514 118.014107
 17.993843 -10.401188 120.844353
 -28.042114 4.389035 116.687836
 -2.715078 30.398993 119.061790
 -28.422653 4.727785 116.890282
 -28.252846 5.030264 116.721657
 -28.291847 6.516666 116.890732
 -26.828985 9.137774 117.935745
 -27.701847 4.050799 116.959877
 -26.518976 10.099354 118.076408
 18.545116 -9.372996 120.548897
 -27.869690 5.784967 116.742447
 -27.705198 5.817825 116.860657
 0.010842 29.989191 119.307167
 -28.084631 6.247991 116.715096
 -30.391647 11.332583 118.038872
 -27.673719 7.013771 116.803955
 -27.886841 7.406521 116.720863
 19.244881 -8.174526 120.739685
 19.321314 -8.110779 121.119888
 -28.072828 7.312078 116.753319
 -28.059595 8.045576 116.885948
 -27.668930 8.282458 116.727570
 -27.386145 8.441309 116.862549
 -18.882154 26.845432 121.327705
 -27.849745 8.526772 116.756149
 19.789572 -7.041541 120.806244
 -27.466740 8.893847 116.760643
 16.841782 11.302210 118.088577
 -27.863136 9.157886 116.872681
 -27.640810 9.348356 116.742714
 -26.384325 10.870819 117.888321
 -27.010164 13.956464 119.065567
 -26.771555 14.840398 119.287842
 -27.457214 9.470646 116.713394
 -27.491001 10.495373 116.855499
 -27.426329 10.079497 116.739838
 -27.212437 9.630175 116.808273
 -27.039303 10.797805 116.755974
