2119
-5 61.0365 13.75655
-4.75 61.0335 13.69305
-4.5 61.0335 13.69305
-4.25 61.0335 13.69305
-4 61.0305 13.6295
-3.75 61.0305 13.6295
-3.5 61.0245 13.5025
-3.25 61.0215 13.439
-3 61.0215 13.439
-2.75 61.016 13.31195
-2.5 61.013 13.24845
-2.25 61.004 13.05795
-2 61.004 13.05795
-1.75 60.998 12.9309
-1.5 60.9925 12.8039
-1.25 60.9865 12.6769
-1 60.9865 12.6769
-0.75 60.9805 12.54985
-0.5 60.9775 12.48635
-0.25 60.9745 12.42285
0 60.969 12.29585
0.25 60.96 12.1053
0.5 60.957 12.0418
0.75 60.951 11.91475
1 60.9395 11.66075
1.25 60.9305 11.4702
1.5 60.9245 11.3432
1.75 60.916 11.15265
2 60.904 10.89865
2.25 60.8865 10.51755
2.5 60.8775 10.32705
2.75 60.866 10.073
3 60.854 9.81895
3.25 60.8485 9.69195
3.5 60.8395 9.50145
3.75 60.81 8.86635
4 60.7895 8.42175
4.25 60.784 8.29475
4.5 60.775 8.104199
4.75 60.766 7.9137
5 60.7545 7.65965
5.25 60.734 7.2151
5.5 60.7135 6.77055
5.75 60.6985 6.453
6 60.6575 5.56385
6.25 60.64 5.1828
6.5 60.596 4.230175
-26.375 59.257 -34.5581
-26.125 59.2695 -34.27295
-25.875 59.2915 -33.77385
-25.625 59.3005 -33.55995
-25.375 59.31 -33.3461
-25.125 59.3195 -33.1322
-24.875 59.3285 -32.9183
-24.625 59.338 -32.7044
-24.375 59.3445 -32.5618
-24.125 59.3475 -32.4905
-23.875 59.3505 -32.41925
-23.625 59.357 -32.27665
-23.375 59.363 -32.13405
-23.125 59.3695 -31.99145
-22.875 59.3725 -31.92015
-22.625 59.3755 -31.84885
-22.375 59.382 -31.70625
-22.125 59.385 -31.635
-21.875 59.388 -31.5637
-21.625 59.394 -31.4211
-21.375 59.4005 -31.2785
-21.125 59.4065 -31.1359
-20.875 59.41 -31.0646
-20.625 59.419 -30.8507
-20.375 59.4225 -30.7794
-20.125 59.4255 -30.7081
-19.875 59.488 -29.2822
-19.625 59.5095 -28.7831
-19.375 59.522 -28.49795
-19.125 59.5285 -28.35535
-18.875 59.5315 -28.28405
-18.625 60.7645 -0.214737
-18.375 60.7585 -0.349652
-18.125 60.977 4.547305
-17.875 60.997 4.99186
-17.625 61.009 5.2459
-17.375 61.003 5.11885
-17.125 61.0815 6.8336
-16.875 61.087 6.9606
-16.625 61.0985 7.21465
-16.375 61.1015 7.27815
-16.125 61.1105 7.46865
-15.875 61.116 7.5957
-15.625 61.2235 9.945499
-15.375 61.2265 10.009
-15.125 61.244 10.39005
-14.875 61.2525 10.58055
-14.625 61.261 10.7711
-14.375 61.2755 11.08865
-14.125 61.2815 11.21565
-13.875 61.2875 11.34265
-13.625 61.299 11.5967
-13.375 61.3045 11.7237
-13.125 61.3105 11.85075
-12.875 61.322 12.10475
-12.625 61.325 12.1683
-12.375 61.331 12.2953
-12.125 61.3365 12.4223
-11.875 61.3395 12.4858
-11.625 61.3425 12.54935
-11.375 61.3455 12.61285
-11.125 61.351 12.73985
-10.875 61.354 12.80335
-10.625 61.357 12.86685
-10.375 61.36 12.93035
-10.125 61.363 12.9939
-9.875 61.363 12.9939
-9.625 61.3655 13.0574
-9.375 61.3685 13.1209
-9.125 61.3685 13.1209
-8.875 61.3685 13.1209
-8.625 61.3715 13.1844
-8.375 61.3715 13.1844
-8.125 61.3745 13.2479
-7.875 61.3745 13.2479
-7.625 61.3775 13.31145
-7.375 61.3775 13.31145
-7.125 61.3745 13.2479
-6.875 61.3745 13.2479
-6.625 61.3775 13.31145
-6.375 61.3775 13.31145
-6.125 61.3775 13.31145
-5.875 61.3775 13.31145
-5.625 61.3775 13.31145
-5.375 61.3775 13.31145
-5.125 61.3745 13.2479
-4.875 61.3745 13.2479
-4.625 61.3745 13.2479
-4.375 61.3745 13.2479
-4.125 61.3685 13.1209
-3.875 61.3685 13.1209
-3.625 61.3685 13.1209
-3.375 61.3655 13.0574
-3.125 61.363 12.9939
-2.875 61.357 12.86685
-2.625 61.354 12.80335
-2.375 61.3485 12.67635
-2.125 61.3455 12.61285
-1.875 61.3395 12.4858
-1.625 61.3365 12.4223
-1.375 61.334 12.3588
-1.125 61.331 12.2953
-0.875 61.328 12.2318
-0.625 61.325 12.1683
-0.375 61.3195 12.04125
-0.125 61.3135 11.91425
0.125 61.3075 11.78725
0.375 61.302 11.6602
0.625 61.296 11.5332
0.875 61.2815 11.21565
1.125 61.273 11.02515
1.375 61.264 10.8346
1.625 61.2495 10.51705
1.875 61.241 10.32655
2.125 61.2265 10.009
2.375 61.2205 9.882
2.625 61.215 9.754951
2.875 61.203 9.50095
3.125 61.1945 9.3104
3.375 61.177 8.929351
3.625 61.154 8.4213
3.875 61.142 8.16725
4.125 61.1365 8.04025
4.375 61.125 7.7862
4.625 61.116 7.5957
4.875 61.09 7.0241
5.125 61.0695 6.57955
5.375 61.055 6.262
5.625 61.035 5.81745
5.875 61.009 5.2459
-26.5 59.6415 -34.7015
-26.25 59.666 -34.1311
-26 59.6785 -33.8459
-25.75 59.694 -33.4894
-25.5 59.703 -33.2755
-25.25 59.712 -33.06165
-25 59.7185 -32.91905
-24.75 59.7275 -32.70515
-24.5 59.734 -32.56255
-24.25 59.74 -32.41995
-24 59.743 -32.34865
-23.75 59.749 -32.20605
-23.5 59.7555 -32.06345
-23.25 59.7615 -31.92085
-23 59.7645 -31.84955
-22.75 59.7645 -31.84955
-22.5 59.7705 -31.70695
-22.25 59.777 -31.5644
-22 59.78 -31.4931
-21.75 59.783 -31.4218
-21.5 59.789 -31.2792
-21.25 59.7985 -31.0653
-21 59.8015 -30.994
-20.75 59.8075 -30.8514
-20.5 59.82 -30.5662
-20.25 59.8355 -30.2097
-20 59.872 -29.35415
-19.75 59.903 -28.6412
-19.5 59.912 -28.4273
-19.25 59.9215 -28.2134
-19 59.9305 -27.9995
-18.75 59.94 -27.7856
-18.5 59.937 -27.8569
-18.25 61.1165 -0.61989
-17.75 61.3575 4.86441
-17.5 61.366 5.05495
-17.25 61.372 5.18195
-17 61.438 6.6426
-16.75 61.4465 6.83315
-16.5 61.455 7.02365
-16.25 61.4635 7.2142
-16 61.472 7.4047
-15.75 61.481 7.5952
-15.5 61.481 7.5952
-15.25 61.481 7.5952
-15 61.587 9.945
-14.75 61.5925 10.072
-14.5 61.601 10.26255
-14.25 61.6155 10.58005
-14 61.6215 10.7071
-13.75 61.633 10.9611
-13.5 61.644 11.21515
-13.25 61.65 11.34215
-13 61.6585 11.53265
-12.75 61.6645 11.6597
-12.5 61.673 11.8502
-12.25 61.6785 11.9772
-12 61.6845 12.10425
-11.75 61.687 12.16775
-11.5 61.69 12.23125
-11.25 61.693 12.29475
-11 61.696 12.35825
-10.75 61.6985 12.42175
-10.5 61.7015 12.4853
-10.25 61.7045 12.5488
-10 61.7045 12.5488
-9.75 61.71 12.6758
-9.5 61.7075 12.6123
-9.25 61.71 12.6758
-9 61.713 12.7393
-8.75 61.713 12.7393
-8.5 61.716 12.8028
-8.25 61.716 12.8028
-8 61.719 12.8663
-7.75 61.719 12.8663
-7.5 61.719 12.8663
-7.25 61.716 12.8028
-7 61.719 12.8663
-6.75 61.7215 12.92985
-6.5 61.719 12.8663
-6.25 61.716 12.8028
-6 61.719 12.8663
-5.75 61.719 12.8663
-5.5 61.719 12.8663
-5.25 61.719 12.8663
-5 61.716 12.8028
-4.75 61.716 12.8028
-4.5 61.716 12.8028
-4.25 61.71 12.6758
-4 61.713 12.7393
-3.75 61.71 12.6758
-3.5 61.71 12.6758
-3.25 61.7045 12.5488
-3 61.6985 12.42175
-2.75 61.6985 12.42175
-2.5 61.693 12.29475
-2.25 61.693 12.29475
-2 61.687 12.16775
-1.75 61.6845 12.10425
-1.5 61.6815 12.04075
-1.25 61.6785 11.9772
-1 61.673 11.8502
-0.75 61.667 11.7232
-0.5 61.6645 11.6597
-0.25 61.6585 11.53265
0 61.65 11.34215
0.25 61.644 11.21515
0.5 61.6355 11.0246
0.75 61.627 10.8341
1 61.6125 10.51655
1.25 61.601 10.26255
1.5 61.5925 10.072
1.75 61.587 9.945
2 61.5755 9.690949
2.25 61.5695 9.56395
2.5 61.558 9.3099
2.75 61.5495 9.1194
3 61.538 8.86535
3.25 61.515 8.357301
3.5 61.498 7.97625
3.75 61.495 7.91275
4 61.481 7.5952
4.25 61.475 7.4682
4.5 61.4405 6.7061
4.75 61.4235 6.3251
5 61.412 6.07105
5.25 61.392 5.6265
5.5 61.3805 5.37245
-26.625 60.023 -34.91615
-26.375 60.0505 -34.27445
-26.125 60.0625 -33.98925
-25.875 60.0805 -33.56145
-25.625 60.093 -33.27625
-25.375 60.099 -33.13365
-25.125 60.108 -32.91975
-24.875 60.117 -32.70585
-24.625 60.123 -32.56325
-24.375 60.129 -32.4207
-24.125 60.1325 -32.34935
-23.875 60.1385 -32.2068
-23.625 60.1445 -32.0642
-23.375 60.1475 -31.9929
-23.125 60.1535 -31.8503
-22.875 60.1565 -31.779
-22.625 60.1595 -31.7077
-22.375 60.1655 -31.5651
-22.125 60.1685 -31.4938
-21.875 60.1745 -31.3512
-21.625 60.181 -31.2086
-21.375 60.19 -30.9947
-21.125 60.19 -30.9947
-20.875 60.202 -30.7095
-20.625 60.214 -30.4243
-20.375 60.2265 -30.1391
-20.125 60.2625 -29.28355
-19.875 60.281 -28.85575
-19.625 60.302 -28.35665
-19.375 60.308 -28.21405
-19.125 60.3205 -27.92885
-18.875 60.3325 -27.64365
-18.625 60.3385 -27.50105
-18.375 60.3385 -27.50105
-17.375 61.721 4.800485
-17.125 61.735 5.118
-16.875 61.738 5.1815
-16.625 61.806 6.70565
-16.375 61.8145 6.8962
-16.125 61.823 7.0867
-15.875 61.8315 7.27725
-15.625 61.84 7.46775
-15.375 61.8455 7.59475
-15.125 61.851 7.72175
-14.875 61.857 7.8488
-14.625 61.871 8.1663
-14.375 61.8795 8.35685
-14.125 61.9505 9.9445
-13.875 61.9615 10.1985
-13.625 61.973 10.45255
-13.375 61.987 10.7701
-13.125 61.993 10.8971
-12.875 61.9985 11.0241
-12.625 62.007 11.21465
-12.375 62.018 11.46865
-12.125 62.024 11.59565
-11.875 62.0295 11.72265
-11.625 62.0325 11.7862
-11.375 62.035 11.8497
-11.125 62.038 11.9132
-10.875 62.041 11.9767
-10.625 62.0435 12.0402
-10.375 62.0495 12.1672
-10.125 62.0465 12.1037
-9.875 62.0495 12.1672
-9.625 62.0495 12.1672
-9.375 62.052 12.2307
-9.125 62.055 12.29425
-8.875 62.055 12.29425
-8.625 62.058 12.35775
-8.375 62.058 12.35775
-8.125 62.058 12.35775
-7.875 62.0605 12.42125
-7.625 62.0605 12.42125
-7.375 62.0605 12.42125
-7.125 62.0635 12.48475
-6.875 62.0605 12.42125
-6.625 62.0605 12.42125
-6.375 62.0605 12.42125
-6.125 62.0605 12.42125
-5.875 62.0605 12.42125
-5.625 62.0605 12.42125
-5.375 62.0605 12.42125
-5.125 62.0605 12.42125
-4.875 62.058 12.35775
-4.625 62.055 12.29425
-4.375 62.055 12.29425
-4.125 62.052 12.2307
-3.875 62.0495 12.1672
-3.625 62.0465 12.1037
-3.375 62.0465 12.1037
-3.125 62.0435 12.0402
-2.875 62.041 11.9767
-2.625 62.035 11.8497
-2.375 62.035 11.8497
-2.125 62.0325 11.7862
-1.875 62.0295 11.72265
-1.625 62.024 11.59565
-1.375 62.021 11.53215
-1.125 62.0155 11.40515
-0.875 62.0125 11.34165
-0.625 62.01 11.2781
-0.375 62.0015 11.0876
-0.125 61.9955 10.9606
0.125 61.9845 10.70655
0.375 61.9785 10.57955
0.625 61.9675 10.32555
0.875 61.956 10.0715
1.125 61.9445 9.8175
1.375 61.939 9.69045
1.625 61.9275 9.43645
1.875 61.922 9.30945
2.125 61.9135 9.118899
2.375 61.908 8.991899
2.625 61.8935 8.67435
2.875 61.871 8.1663
3.125 61.851 7.72175
3.375 61.8455 7.59475
3.625 61.837 7.40425
3.875 61.7975 6.51515
4.125 61.766 5.8166
4.375 61.715 4.673465
4.625 61.735 5.118
4.875 61.7435 5.30855
5.125 61.3995 -2.643975
5.375 61.4025 -2.576525
5.875 60.6355 -20.51375
-27 60.36 -36.2003
-26.75 60.414 -34.9169
-26.5 60.432 -34.4891
-26.25 60.444 -34.2039
-26 60.462 -33.7761
-25.75 60.4765 -33.4196
-25.5 60.4825 -33.277
-25.25 60.4945 -32.9918
-25 60.5035 -32.7779
-24.75 60.5095 -32.6353
-24.5 60.5155 -32.4927
-24.25 60.5215 -32.3501
-24 60.5245 -32.2788
-23.75 60.5305 -32.1362
-23.5 60.5365 -31.9936
-23.25 60.5425 -31.851
-23 60.5455 -31.7797
-22.75 60.5515 -31.6371
-22.5 60.5545 -31.5658
-22.25 60.5575 -31.4945
-22 60.5635 -31.3519
-21.75 60.5695 -31.2093
-21.5 60.5785 -30.9954
-21.25 60.5815 -30.9241
-21 60.5875 -30.7815
-20.75 60.6055 -30.3537
-20.5 60.62 -29.9972
-20.25 60.647 -29.3555
-20 60.668 -28.8564
-19.75 60.689 -28.3573
-19.5 60.698 -28.1434
-19.25 60.707 -27.9295
-19 60.719 -27.6443
-18.75 60.728 -27.4304
-18.5 60.74 -27.1452
-18.25 60.7485 -26.9313
-18 60.7515 -26.86
-17.75 60.7605 -26.6461
-17 62.0925 4.927065
-16.75 62.0985 5.0541
-16.5 62.16 6.4512
-16.25 62.168 6.6417
-16 62.182 6.95925
-15.75 62.1905 7.14975
-15.5 62.199 7.3403
-15.25 62.2075 7.5308
-15 62.21 7.5943
-14.75 62.2185 7.7848
-14.5 62.2325 8.10235
-14.25 62.241 8.29285
-14 62.255 8.6104
-13.75 62.2635 8.8009
-13.5 62.2715 8.9914
-13.25 62.28 9.181951
-13 62.3165 10.0075
-12.75 62.3445 10.64255
-12.5 62.35 10.76955
-12.25 62.361 11.0236
-12 62.364 11.0871
-11.75 62.3695 11.2141
-11.5 62.375 11.3411
-11.25 62.381 11.46815
-11 62.3835 11.53165
-10.75 62.3865 11.59515
-10.5 62.3865 11.59515
-10.25 62.389 11.65865
-10 62.392 11.72215
-9.75 62.392 11.72215
-9.5 62.392 11.72215
-9.25 62.3975 11.84915
-9 62.395 11.78565
-8.75 62.3975 11.84915
-8.5 62.3975 11.84915
-8.25 62.4005 11.91265
-8 62.4005 11.91265
-7.75 62.4005 11.91265
-7.5 62.4005 11.91265
-7.25 62.4005 11.91265
-7 62.403 11.97615
-6.75 62.403 11.97615
-6.5 62.4005 11.91265
-6.25 62.4005 11.91265
-6 62.4005 11.91265
-5.75 62.403 11.97615
-5.5 62.4005 11.91265
-5.25 62.4005 11.91265
-5 62.3975 11.84915
-4.75 62.3975 11.84915
-4.5 62.3975 11.84915
-4.25 62.392 11.72215
-4 62.392 11.72215
-3.75 62.389 11.65865
-3.5 62.3865 11.59515
-3.25 62.3835 11.53165
-3 62.3835 11.53165
-2.75 62.378 11.4046
-2.5 62.378 11.4046
-2.25 62.375 11.3411
-2 62.3725 11.2776
-1.75 62.367 11.1506
-1.5 62.364 11.0871
-1.25 62.361 11.0236
-1 62.3585 10.9601
-0.75 62.347 10.70605
-0.5 62.3445 10.64255
-0.25 62.339 10.51555
0 62.3305 10.32505
0.25 62.3195 10.071
0.5 62.311 9.8805
0.75 62.2995 9.62645
1 62.2885 9.372451
1.25 62.283 9.24545
1.5 62.269 8.9279
1.75 62.2635 8.8009
2 62.2495 8.483399
2.25 62.2325 8.10235
2.5 62.1905 7.14975
2.75 62.1905 7.14975
3 62.1795 6.89575
3.25 62.1485 6.1972
3.5 62.1345 5.87965
3.75 62.0985 5.0541
4 62.0955 4.990575
4.25 62.0785 4.609545
4.5 62.017 3.212425
4.75 62.009 3.0219
5 61.7785 -2.44203
5.25 61.7785 -2.44203
5.75 61.006 -20.7995
-26.875 60.74 -36.4863
-26.625 60.8165 -34.63245
-26.375 60.8315 -34.27595
-26.125 60.837 -34.13335
-25.875 60.858 -33.63425
-25.625 60.8695 -33.34905
-25.375 60.8755 -33.20645
-25.125 60.89 -32.8499
-24.875 60.893 -32.7786
-24.625 60.899 -32.636
-24.375 60.905 -32.4934
-24.125 60.911 -32.3508
-23.875 60.917 -32.2082
-23.625 60.9225 -32.0656
-23.375 60.9255 -31.9943
-23.125 60.9345 -31.7804
-22.875 60.9375 -31.7091
-22.625 60.9435 -31.5665
-22.375 60.946 -31.4952
-22.125 60.949 -31.4239
-21.875 60.958 -31.21
-21.625 60.964 -31.0674
-21.375 60.9725 -30.8535
-21.125 60.9785 -30.7109
-20.875 60.9845 -30.5683
-20.625 61.014 -29.85525
-20.375 61.0285 -29.49875
-20.125 61.0525 -28.92835
-19.875 61.076 -28.35795
-19.625 61.0875 -28.07275
-19.375 61.0935 -27.93015
-19.125 61.1025 -27.71625
-18.875 61.117 -27.3597
-18.625 61.123 -27.21715
-18.375 61.1375 -26.8606
-18.125 61.1465 -26.6467
-17.875 61.1555 -26.4328
-17.625 61.1585 -26.3615
-17.375 61.1615 -26.2902
-17.125 61.1585 -26.3615
-16.375 62.459 4.92664
-16.125 62.4505 4.73613
-15.875 62.536 6.70475
-15.625 62.5415 6.8318
-15.375 62.5555 7.1493
-15.125 62.561 7.2763
-14.875 62.5665 7.4033
-14.625 62.5775 7.65735
-14.375 62.5885 7.91135
-14.125 62.5995 8.16535
-13.875 62.608 8.3559
-13.625 62.6165 8.5464
-13.375 62.6245 8.7369
-13.125 62.63 8.8639
-12.875 62.633 8.927449
-12.625 62.6355 8.99095
-12.375 62.641 9.117949
-12.125 62.6965 10.38805
-11.875 62.7045 10.57855
-11.625 62.71 10.70555
-11.375 62.7155 10.83255
-11.125 62.7215 10.95955
-10.875 62.727 11.0866
-10.625 62.724 11.0231
-10.375 62.7295 11.1501
-10.125 62.7295 11.1501
-9.875 62.7295 11.1501
-9.625 62.7325 11.2136
-9.375 62.7325 11.2136
-9.125 62.735 11.2771
-8.875 62.738 11.3406
-8.625 62.738 11.3406
-8.375 62.738 11.3406
-8.125 62.7405 11.4041
-7.875 62.7405 11.4041
-7.625 62.7405 11.4041
-7.375 62.7405 11.4041
-7.125 62.738 11.3406
-6.875 62.7405 11.4041
-6.625 62.7435 11.4676
-6.375 62.7405 11.4041
-6.125 62.7405 11.4041
-5.875 62.7405 11.4041
-5.625 62.7435 11.4676
-5.375 62.7435 11.4676
-5.125 62.7405 11.4041
-4.875 62.738 11.3406
-4.625 62.735 11.2771
-4.375 62.7325 11.2136
-4.125 62.735 11.2771
-3.875 62.7295 11.1501
-3.625 62.7295 11.1501
-3.375 62.727 11.0866
-3.125 62.724 11.0231
-2.875 62.7215 10.95955
-2.625 62.7185 10.89605
-2.375 62.7155 10.83255
-2.125 62.713 10.76905
-1.875 62.71 10.70555
-1.625 62.7075 10.64205
-1.375 62.702 10.51505
-1.125 62.702 10.51505
-0.875 62.6935 10.32455
-0.625 62.6855 10.134
-0.375 62.6825 10.0705
-0.125 62.6745 9.88
0.125 62.6605 9.56245
0.375 62.652 9.37195
0.625 62.641 9.117949
0.875 62.63 8.8639
1.125 62.6245 8.7369
1.375 62.611 8.4194
1.625 62.5915 7.97485
1.875 62.5695 7.4668
2.125 62.561 7.2763
2.375 62.536 6.70475
2.625 62.536 6.70475
2.875 62.5225 6.38725
3.125 62.492 5.6887
3.375 62.481 5.4347
3.625 62.459 4.92664
3.875 62.448 4.67262
4.125 62.4425 4.54562
4.375 62.3815 3.14852
4.625 62.155 -2.30755
4.875 62.1465 -2.509915
5.125 62.144 -2.57737
-26.75 61.1955 -34.9184
-26.5 61.213 -34.4906
-26.25 61.222 -34.2767
-26 61.2275 -34.1341
-25.75 61.251 -33.56365
-25.5 61.2625 -33.27845
-25.25 61.268 -33.13585
-25 61.277 -32.92195
-24.75 61.2825 -32.77935
-24.5 61.2885 -32.63675
-24.25 61.2975 -32.42285
-24 61.3 -32.35155
-23.75 61.306 -32.20895
-23.5 61.312 -32.0663
-23.25 61.3175 -31.9237
-23 61.3235 -31.7811
-22.75 61.329 -31.6385
-22.5 61.335 -31.4959
-22.25 61.338 -31.4246
-22 61.3435 -31.282
-21.75 61.3525 -31.0681
-21.5 61.358 -30.9255
-21.25 61.367 -30.71155
-21 61.3725 -30.56895
-20.75 61.396 -29.99855
-20.5 61.4135 -29.57075
-20.25 61.4335 -29.07165
-20 61.457 -28.5012
-19.75 61.4745 -28.0734
-19.5 61.48 -27.9308
-19.25 61.489 -27.7169
-19 61.5005 -27.43165
-18.75 61.512 -27.14645
-18.5 61.518 -27.00385
-18.25 61.5295 -26.71865
-18 61.538 -26.50475
-17.75 61.547 -26.29085
-17.5 61.5525 -26.1482
-17.25 61.5585 -26.0056
-17 61.5615 -25.9343
-16.75 61.567 -25.7917
-16.5 61.567 -25.7917
-16.25 62.814 4.672195
-16 62.8115 4.6087
-15.75 62.803 4.418185
-15.25 62.907 6.8313
-15 62.9125 6.95835
-14.75 62.9205 7.14885
-14.5 62.9285 7.33935
-14.25 62.9395 7.59335
-14 62.956 7.9744
-13.75 62.9615 8.1014
-13.5 62.9695 8.291901
-13.25 62.9775 8.4824
-13 62.9805 8.545899
-12.75 62.983 8.60945
-12.5 62.986 8.67295
-12.25 62.9915 8.79995
-12 62.994 8.86345
-11.75 62.9995 8.99045
-11.5 62.997 8.92695
-11.25 63.057 10.324
-11 63.054 10.2605
-10.75 63.0625 10.45105
-10.5 63.0625 10.45105
-10.25 63.065 10.51455
-10 63.065 10.51455
-9.75 63.0675 10.57805
-9.5 63.0705 10.64155
-9.25 63.0705 10.64155
-9 63.073 10.70505
-8.75 63.073 10.70505
-8.5 63.076 10.76855
-8.25 63.076 10.76855
-8 63.076 10.76855
-7.75 63.0785 10.83205
-7.5 63.0785 10.83205
-7.25 63.0785 10.83205
-7 63.0815 10.89555
-6.75 63.0785 10.83205
-6.5 63.0815 10.89555
-6.25 63.084 10.95905
-6 63.0815 10.89555
-5.75 63.0815 10.89555
-5.5 63.076 10.76855
-5.25 63.0785 10.83205
-5 63.076 10.76855
-4.75 63.076 10.76855
-4.5 63.0705 10.64155
-4.25 63.073 10.70505
-4 63.0675 10.57805
-3.75 63.0705 10.64155
-3.5 63.065 10.51455
-3.25 63.065 10.51455
-3 63.065 10.51455
-2.75 63.0595 10.3875
-2.5 63.057 10.324
-2.25 63.054 10.2605
-2 63.0515 10.197
-1.75 63.0485 10.1335
-1.5 63.043 10.0065
-1.25 63.0375 9.879499
-1 63.035 9.816
-0.75 63.024 9.561999
-0.5 63.024 9.561999
-0.25 63.0105 9.244451
0 62.9995 8.99045
0.25 62.9915 8.79995
0.5 62.986 8.67295
0.75 62.9725 8.355399
1 62.9615 8.1014
1.25 62.937 7.52985
1.5 62.9315 7.40285
1.75 62.9175 7.08535
2 62.9125 6.95835
2.25 62.8875 6.3868
2.5 62.885 6.3233
2.75 62.863 5.81525
3 62.836 5.18025
3.25 62.8275 4.98972
3.5 62.8115 4.6087
3.75 62.8005 4.354685
4 62.735 2.818735
4.25 62.732 2.751285
4.5 62.5175 -2.51034
4.75 62.506 -2.780165
-26.625 61.5865 -34.9192
-26.375 61.6065 -34.42005
-26.125 61.6125 -34.27745
-25.875 61.621 -34.06355
-25.625 61.6435 -33.4931
-25.375 61.6495 -33.3505
-25.125 61.658 -33.1366
-24.875 61.6635 -32.994
-24.625 61.6725 -32.78005
-24.375 61.681 -32.56615
-24.125 61.6865 -32.42355
-23.875 61.6925 -32.28095
-23.625 61.695 -32.20965
-23.375 61.701 -32.06705
-23.125 61.7065 -31.92445
-22.875 61.7125 -31.7818
-22.625 61.721 -31.5679
-22.375 61.724 -31.4966
-22.125 61.7265 -31.4253
-21.875 61.7325 -31.2827
-21.625 61.744 -30.9975
-21.375 61.7495 -30.8549
-21.125 61.755 -30.71225
-20.875 61.775 -30.21315
-20.625 61.7925 -29.7853
-20.375 61.818 -29.1436
-20.125 61.8355 -28.71575
-19.875 61.8555 -28.21665
-19.625 61.864 -28.00275
-19.375 61.8725 -27.7888
-19.125 61.884 -27.5036
-18.875 61.8925 -27.2897
-18.625 61.898 -27.1471
-18.375 61.9125 -26.79055
-18.125 61.918 -26.64795
-17.875 61.927 -26.43405
-17.625 61.9355 -26.22015
-17.375 61.944 -26.00625
-17.125 61.9495 -25.8636
-16.875 61.9555 -25.721
-16.625 61.961 -25.5784
-16.375 61.964 -25.5071
-16.125 61.9495 -25.8636
-15.625 63.159 4.163755
-15.125 63.183 4.73528
-14.875 63.256 6.44985
-14.625 63.269 6.76735
-14.375 63.28 7.0214
-14.125 63.2855 7.1484
-13.875 63.304 7.5929
-13.625 63.3125 7.7834
-13.375 63.31499 7.8469
-13.125 63.326 8.1009
-12.875 63.331 8.22795
-12.625 63.3365 8.35495
-12.375 63.339 8.41845
-12.125 63.3445 8.54545
-11.875 63.3475 8.608951
-11.625 63.35 8.67245
-11.375 63.3525 8.73595
-11.125 63.3525 8.73595
-10.875 63.3555 8.79945
-10.625 63.361 8.926451
-10.375 63.393 9.6885
-10.125 63.3985 9.8155
-9.875 63.404 9.9425
-9.625 63.404 9.9425
-9.375 63.4065 10.006
-9.125 63.4065 10.006
-8.875 63.4065 10.006
-8.625 63.409 10.0695
-8.375 63.409 10.0695
-8.125 63.409 10.0695
-7.875 63.412 10.133
-7.625 63.4145 10.1965
-7.375 63.4175 10.26
-7.125 63.412 10.133
-6.875 63.4175 10.26
-6.625 63.4175 10.26
-6.375 63.4145 10.1965
-6.125 63.4175 10.26
-5.875 63.4175 10.26
-5.625 63.42 10.3235
-5.375 63.4175 10.26
-5.125 63.412 10.133
-4.875 63.412 10.133
-4.625 63.412 10.133
-4.375 63.412 10.133
-4.125 63.4065 10.006
-3.875 63.409 10.0695
-3.625 63.4065 10.006
-3.375 63.404 9.9425
-3.125 63.3985 9.8155
-2.875 63.3985 9.8155
-2.625 63.396 9.752
-2.375 63.393 9.6885
-2.125 63.3905 9.625
-1.875 63.3825 9.4345
-1.625 63.3795 9.371
-1.375 63.377 9.307449
-1.125 63.374 9.24395
-0.875 63.3635 8.98995
-0.625 63.358 8.86295
-0.375 63.35 8.67245
-0.125 63.3445 8.54545
0.125 63.334 8.291451
0.375 63.323 8.0374
0.625 63.3125 7.7834
0.875 63.2935 7.3389
1.125 63.2825 7.0849
1.375 63.2745 6.8944
1.625 63.264 6.64035
1.875 63.2585 6.51335
2.125 63.237 6.00535
2.375 63.2155 5.4973
2.625 63.202 5.1798
2.875 63.175 4.544775
3.125 63.167 4.35427
3.375 63.159 4.163755
3.625 62.9095 -1.971105
3.875 62.904 -2.10602
4.125 62.8935 -2.375845
-26.75 61.9605 -35.34775
-26.5 61.9775 -34.91995
-26.25 61.997 -34.4208
-26 62.0025 -34.2782
-25.75 62.017 -33.9217
-25.5 62.031 -33.56515
-25.25 62.0395 -33.35125
-25 62.048 -33.1373
-24.75 62.056 -32.9234
-24.5 62.062 -32.7808
-24.25 62.0705 -32.5669
-24 62.073 -32.49555
-23.75 62.0815 -32.28165
-23.5 62.0845 -32.21035
-23.25 62.093 -31.99645
-23 62.0955 -31.92515
-22.75 62.1015 -31.78255
-22.5 62.1095 -31.5686
-22.25 62.1125 -31.4973
-22 62.118 -31.3547
-21.75 62.1265 -31.1408
-21.5 62.135 -30.9269
-21.25 62.1405 -30.78425
-21 62.152 -30.49905
-20.75 62.169 -30.0712
-20.5 62.1915 -29.5008
-20.25 62.2165 -28.85905
-20 62.231 -28.5025
-19.75 62.242 -28.2173
-19.5 62.256 -27.86075
-19.25 62.262 -27.71815
-19 62.273 -27.43295
-18.75 62.2785 -27.29035
-18.5 62.29 -27.0051
-18.25 62.2985 -26.7912
-18 62.307 -26.5773
-17.75 62.3125 -26.43465
-17.5 62.3265 -26.07815
-17.25 62.332 -25.93555
-17 62.3405 -25.7216
-16.75 62.346 -25.579
-16.5 62.352 -25.4364
-16.25 62.352 -25.4364
-16 62.349 -25.5077
-15.75 62.3605 -25.2225
-14.75 63.5415 4.54435
-14.5 63.6025 6.0049
-14.25 63.621 6.4494
-14 63.6265 6.5764
-13.75 63.645 7.0209
-13.5 63.653 7.2114
-13.25 63.661 7.40195
-13 63.669 7.59245
-12.75 63.682 7.90995
-12.5 63.682 7.90995
-12.25 63.69 8.100451
-12 63.69 8.100451
-11.75 63.693 8.16395
-11.5 63.698 8.29095
-11.25 63.7035 8.41795
-11 63.7035 8.41795
-10.75 63.706 8.48145
-10.5 63.706 8.48145
-10.25 63.706 8.48145
-10 63.7115 8.60845
-9.75 63.7275 8.98945
-9.5 63.7355 9.18
-9.25 63.7355 9.18
-9 63.7405 9.307
-8.75 63.7405 9.307
-8.5 63.7405 9.307
-8.25 63.746 9.434
-8 63.7485 9.4975
-7.75 63.754 9.6245
-7.5 63.754 9.6245
-7.25 63.7515 9.561001
-7 63.7515 9.561001
-6.75 63.7485 9.4975
-6.5 63.746 9.434
-6.25 63.7515 9.561001
-6 63.754 9.6245
-5.75 63.754 9.6245
-5.5 63.746 9.434
-5.25 63.7485 9.4975
-5 63.7485 9.4975
-4.75 63.7485 9.4975
-4.5 63.746 9.434
-4.25 63.746 9.434
-4 63.7435 9.370501
-3.75 63.7435 9.370501
-3.5 63.738 9.243501
-3.25 63.738 9.243501
-3 63.738 9.243501
-2.75 63.7325 9.1165
-2.5 63.73 9.053
-2.25 63.7245 8.92595
-2 63.722 8.86245
-1.75 63.71951 8.79895
-1.5 63.71951 8.79895
-1.25 63.7115 8.60845
-1 63.701 8.354449
-0.75 63.6955 8.227449
-0.5 63.693 8.16395
-0.25 63.677 7.78295
0 63.6715 7.65595
0.25 63.6635 7.46545
0.5 63.645 7.0209
0.75 63.637 6.8304
1 63.6315 6.7034
1.25 63.6105 6.1954
1.5 63.6025 6.0049
1.75 63.584 5.5604
2 63.5575 4.92536
2.25 63.5495 4.734855
2.5 63.504 3.655325
2.75 63.5095 3.78233
3 63.5095 3.78233
3.5 63.28 -1.97153
-26.625 62.3515 -35.34855
-26.375 62.368 -34.9207
-26.125 62.382 -34.56415
-25.875 62.393 -34.27895
-25.625 62.41 -33.8511
-25.375 62.4155 -33.7085
-25.125 62.4265 -33.4233
-24.875 62.435 -33.20935
-24.625 62.443 -32.99545
-24.375 62.4485 -32.85285
-24.125 62.457 -32.6389
-23.875 62.4625 -32.4963
-23.625 62.468 -32.3537
-23.375 62.4735 -32.2111
-23.125 62.482 -31.99715
-22.875 62.4845 -31.92585
-22.625 62.493 -31.71195
-22.375 62.4985 -31.5693
-22.125 62.5015 -31.498
-21.875 62.507 -31.3554
-21.625 62.515 -31.1415
-21.375 62.5235 -30.92755
-21.125 62.529 -30.78495
-20.875 62.5455 -30.3571
-20.625 62.5595 -30.0006
-20.375 62.5815 -29.43015
-20.125 62.6065 -28.7884
-19.875 62.6205 -28.43185
-19.625 62.629 -28.21795
-19.375 62.64 -27.9327
-19.125 62.651 -27.6475
-18.875 62.654 -27.5762
-18.625 62.665 -27.29095
-18.375 62.676 -27.00575
-18.125 62.6845 -26.7918
-17.875 62.6955 -26.5066
-17.625 62.7035 -26.2927
-17.375 62.712 -26.07875
-17.125 62.7175 -25.93615
-16.875 62.726 -25.72225
-16.625 62.734 -25.5083
-16.375 62.7395 -25.3657
-16.125 62.748 -25.1518
-15.875 62.7565 -24.93785
-15.625 62.759 -24.86655
-15.375 62.759 -24.86655
-15.125 62.759 -24.86655
-14.375 63.9075 4.54393
-14.125 63.892 4.16292
-13.875 63.968 6.00445
-13.625 63.976 6.19495
-13.375 63.976 6.19495
-13.125 63.981 6.32195
-12.875 64.002 6.82995
-12.625 64.005 6.89345
-12.375 64.01801 7.21095
-12.125 64.0255 7.40145
-11.875 64.0285 7.46495
-11.625 64.039 7.71895
-11.375 64.0415 7.7825
-11.125 64.0495 7.973001
-10.875 64.052 8.0365
-10.625 64.052 8.0365
-10.375 64.0545 8.09995
-10.125 64.06001 8.227
-9.875 64.06001 8.227
-9.625 64.0675 8.4175
-9.375 64.073 8.5445
-9.125 64.073 8.5445
-8.875 64.078 8.6715
-8.625 64.0835 8.7985
-8.375 64.0885 8.9255
-8.125 64.086 8.862
-7.875 64.086 8.862
-7.625 64.0885 8.9255
-7.375 64.0885 8.9255
-7.125 64.0885 8.9255
-6.875 64.086 8.862
-6.625 64.0885 8.9255
-6.375 64.09151 8.988999
-6.125 64.09151 8.988999
-5.875 64.0835 8.7985
-5.625 64.0835 8.7985
-5.375 64.086 8.862
-5.125 64.086 8.862
-4.875 64.0835 8.7985
-4.625 64.081 8.735001
-4.375 64.078 8.6715
-4.125 64.081 8.735001
-3.875 64.081 8.735001
-3.625 64.073 8.5445
-3.375 64.0755 8.608001
-3.125 64.073 8.5445
-2.875 64.0705 8.481
-2.625 64.0675 8.4175
-2.375 64.065 8.354
-2.125 64.065 8.354
-1.875 64.06001 8.227
-1.625 64.057 8.1635
-1.375 64.0495 7.973001
-1.125 64.044 7.84595
-0.875 64.0415 7.7825
-0.625 64.031 7.52845
-0.375 64.01801 7.21095
-0.125 64.01 7.02045
0.125 64.002 6.82995
0.375 63.9865 6.44895
0.625 63.981 6.32195
0.875 63.9655 5.94095
1.125 63.9445 5.43295
1.375 63.9235 4.92493
1.625 63.921 4.861425
1.875 63.887 4.03592
2.125 63.8475 3.083405
2.375 63.8475 3.083405
-26.5 62.7425 -35.3493
-26.25 62.7565 -34.9928
-26 62.7675 -34.70755
-25.75 62.781 -34.351
-25.5 62.7945 -33.9945
-25.25 62.803 -33.78055
-25 62.8165 -33.424
-24.75 62.822 -33.2814
-24.5 62.83 -33.0675
-24.25 62.838 -32.85355
-24 62.8435 -32.71095
-23.75 62.849 -32.56835
-23.5 62.8545 -32.4257
-23.25 62.863 -32.2118
-23 62.8685 -32.0692
-22.75 62.8735 -31.92655
-22.5 62.87901 -31.78395
-22.25 62.882 -31.71265
-22 62.89 -31.4987
-21.75 62.8955 -31.3561
-21.5 62.9035 -31.1422
-21.25 62.912 -30.92825
-21 62.92 -30.71435
-20.75 62.934 -30.3578
-20.5 62.9475 -30.00125
-20.25 62.9775 -29.2169
-20 62.994 -28.78905
-19.75 63.01 -28.3612
-19.5 63.0155 -28.2186
-19.25 63.0265 -27.93335
-19 63.0345 -27.71945
-18.75 63.04 -27.57685
-18.5 63.051 -27.2916
-18.25 63.0595 -27.0777
-18 63.073 -26.72115
-17.75 63.081 -26.5072
-17.5 63.0895 -26.2933
-17.25 63.0975 -26.07935
-17 63.1085 -25.79415
-16.75 63.1165 -25.5802
-16.5 63.122 -25.4376
-16.25 63.133 -25.1524
-16 63.141 -24.93845
-15.75 63.1465 -24.79585
-15.5 63.1495 -24.72455
-15.25 63.152 -24.65325
-15 63.152 -24.65325
-14.75 63.155 -24.5819
-14.5 63.163 -24.368
-14.25 63.152 -24.65325
-13.25 64.313 5.496
-13 64.318 5.623
-12.75 64.3205 5.6865
-12.5 64.331 5.9405
-12.25 64.339 6.131
-12 64.3545 6.512
-11.75 64.367 6.8295
-11.5 64.37251 6.9565
-11.25 64.38 7.147
-11 64.383 7.2105
-10.75 64.393 7.4645
-10.5 64.3955 7.528
-10.25 64.4035 7.7185
-10 64.406 7.782
-9.75 64.406 7.782
-9.5 64.4085 7.8455
-9.25 64.414 7.9725
-9 64.411 7.909
-8.75 64.4165 8.035999
-8.5 64.401 7.655
-8.25 64.3955 7.528
-8 64.424 8.2265
-7.75 64.42149 8.163
-7.5 64.424 8.2265
-7.25 64.411 7.909
-7 64.411 7.909
-6.75 64.424 8.2265
-6.5 64.424 8.2265
-6.25 64.424 8.2265
-6 64.42149 8.163
-5.75 64.42149 8.163
-5.5 64.4265 8.29
-5.25 64.4295 8.353499
-5 64.42149 8.163
-4.75 64.42149 8.163
-4.5 64.419 8.0995
-4.25 64.4165 8.035999
-4 64.411 7.909
-3.75 64.4165 8.035999
-3.5 64.411 7.909
-3.25 64.4085 7.8455
-3 64.4085 7.8455
-2.75 64.406 7.782
-2.5 64.4035 7.7185
-2.25 64.3955 7.528
-2 64.3905 7.401
-1.75 64.3905 7.401
-1.5 64.375 7.02
-1.25 64.38 7.147
-1 64.37251 6.9565
-0.75 64.3645 6.766
-0.5 64.35699 6.5755
-0.25 64.34399 6.258
0 64.336 6.0675
0.25 64.3155 5.5595
0.5 64.292 4.988005
0.75 64.2665 4.35301
1 64.256 4.09901
1.25 64.2585 4.1625
1.5 64.23 3.46401
2.75 63.0295 -27.86205
3 63.021 -28.076
3.5 62.961 -29.64475
3.75 62.9555 -29.78735
4 62.8765 -31.85525
4.25 62.8765 -31.85525
-26.375 63.126 -35.564
-26.125 63.1445 -35.06485
-25.875 63.1555 -34.7796
-25.625 63.1715 -34.35175
-25.375 63.1795 -34.13785
-25.125 63.1875 -33.9239
-24.875 63.2065 -33.42475
-24.625 63.2065 -33.42475
-24.375 63.2145 -33.21085
-24.125 63.225 -32.9256
-23.875 63.2305 -32.783
-23.625 63.236 -32.64035
-23.375 63.244 -32.42645
-23.125 63.2495 -32.2838
-22.875 63.2545 -32.1412
-22.625 63.26 -31.9986
-22.375 63.268 -31.78465
-22.125 63.271 -31.71335
-21.875 63.279 -31.4994
-21.625 63.2815 -31.4281
-21.375 63.2895 -31.2142
-21.125 63.3005 -30.92895
-20.875 63.311 -30.64375
-20.625 63.319 -30.4298
-20.375 63.3355 -30.00195
-20.125 63.3675 -29.14625
-19.875 63.381 -28.7897
-19.625 63.3915 -28.50445
-19.375 63.4025 -28.21925
-19.125 63.4105 -28.0053
-18.875 63.4185 -27.7914
-18.625 63.4265 -27.57745
-18.375 63.4345 -27.36355
-18.125 63.4425 -27.1496
-17.875 63.459 -26.72175
-17.625 63.4695 -26.43655
-17.375 63.475 -26.2939
-17.125 63.483 -26.08
-16.875 63.4965 -25.72345
-16.625 63.502 -25.5808
-16.375 63.51 -25.3669
-16.125 63.518 -25.153
-15.875 63.526 -24.93905
-15.625 63.534 -24.72515
-15.375 63.534 -24.72515
-15.125 63.5395 -24.5825
-14.875 63.5445 -24.4399
-14.625 63.5475 -24.3686
-14.375 63.553 -24.22595
-14.125 63.55 -24.29725
-13.875 63.553 -24.22595
-13.625 63.55 -24.29725
-12.875 64.6635 5.11455
-12.625 64.6635 5.11455
-12.375 64.67101 5.30505
-12.125 64.676 5.43205
-11.875 64.6815 5.55905
-11.625 64.694 5.87655
-11.375 64.6965 5.94005
-11.125 64.7045 6.13055
-10.875 64.71201 6.32105
-10.625 64.727 6.70205
-10.375 64.7375 6.95605
-10.125 64.735 6.89255
-9.875 64.7375 6.95605
-9.625 64.74001 7.01955
-9.375 64.7375 6.95605
-9.125 64.745 7.14655
-8.875 64.7425 7.08305
-8.625 64.745 7.14655
-8.375 64.745 7.14655
-8.125 64.74001 7.01955
-7.875 64.7375 6.95605
-7.625 64.745 7.14655
-7.375 64.7425 7.08305
-7.125 64.7475 7.21005
-6.875 64.75301 7.33705
-6.625 64.7555 7.40055
-6.375 64.75301 7.33705
-6.125 64.7555 7.40055
-5.875 64.7555 7.40055
-5.625 64.7555 7.40055
-5.375 64.7555 7.40055
-5.125 64.7555 7.40055
-4.875 64.7555 7.40055
-4.625 64.75301 7.33705
-4.375 64.75301 7.33705
-4.125 64.7555 7.40055
-3.875 64.7475 7.21005
-3.625 64.745 7.14655
-3.375 64.7425 7.08305
-3.125 64.7425 7.08305
-2.875 64.7375 6.95605
-2.625 64.74001 7.01955
-2.375 64.73 6.76555
-2.125 64.7375 6.95605
-1.875 64.722 6.57505
-1.625 64.717 6.44805
-1.375 64.717 6.44805
-1.125 64.7145 6.38455
-0.875 64.6965 5.94005
-0.625 64.676 5.43205
-0.375 64.6735 5.36855
-0.125 64.6175 3.97159
0.125 64.633 4.35259
2.125 63.448 -27.007
2.375 63.4455 -27.0783
2.625 63.4185 -27.7914
2.875 63.4185 -27.7914
3.125 63.405 -28.14795
3.375 63.354 -29.5028
3.625 63.3485 -29.6454
3.875 63.327 -30.21585
4.125 63.279 -31.4994
-26 63.533 -35.1369
-25.75 63.541 -34.923
-25.5 63.5565 -34.49515
-25.25 63.5645 -34.2812
-25 63.5725 -34.06725
-24.75 63.5885 -33.6394
-24.5 63.5965 -33.4255
-24.25 63.6015 -33.28285
-24 63.6095 -33.06895
-23.75 63.6175 -32.855
-23.5 63.6225 -32.7124
-23.25 63.6305 -32.49845
-23 63.6335 -32.42715
-22.75 63.6385 -32.28455
-22.5 63.649 -31.9993
-22.25 63.649 -31.9993
-22 63.6595 -31.71405
-21.75 63.6625 -31.64275
-21.5 63.6675 -31.50015
-21.25 63.6755 -31.2862
-21 63.6835 -31.07225
-20.75 63.6965 -30.7157
-20.5 63.7045 -30.5018
-20.25 63.726 -29.9313
-20 63.752 -29.2182
-19.75 63.7655 -28.8617
-19.5 63.7785 -28.50515
-19.25 63.789 -28.2199
-19 63.7945 -28.07725
-18.75 63.8025 -27.86335
-18.5 63.8105 -27.6494
-18.25 63.818 -27.4355
-18 63.8315 -27.07895
-17.75 63.842 -26.7937
-17.5 63.8525 -26.50845
-17.25 63.8605 -26.29455
-17 63.8735 -25.938
-16.75 63.8815 -25.72405
-16.5 63.887 -25.58145
-16.25 63.8975 -25.2962
-16 63.9055 -25.08225
-15.75 63.9105 -24.93965
-15.5 63.916 -24.797
-15.25 63.9215 -24.6544
-15 63.9265 -24.5118
-14.75 63.932 -24.36915
-14.5 63.9345 -24.29785
-14.25 63.937 -24.22655
-14 63.9425 -24.08395
-13.75 63.945 -24.0126
-13.5 63.9425 -24.08395
-13.25 63.945 -24.0126
-13 63.953 -23.7987
-12.75 63.9555 -23.7274
-12.5 63.961 -23.58475
-12.25 63.9635 -23.51345
-12 65.007 4.542665
-11.75 65.0095 4.606165
-11.5 65.0345 5.24115
-11.25 65.032 5.17765
-11 65.032 5.17765
-10.75 65.0395 5.36815
-10.5 65.0445 5.49515
-10.25 65.0495 5.62215
-10 65.0645 6.0031
-9.75 65.0645 6.0031
-9.5 65.07 6.1301
-9.25 65.0775 6.3206
-9 65.0825 6.4476
-8.75 65.0825 6.4476
-8.5 65.0825 6.4476
-8.25 65.09 6.6381
-8 65.08749 6.5746
-7.75 65.0825 6.4476
-7.5 65.0825 6.4476
-7.25 65.09 6.6381
-7 65.08749 6.5746
-6.75 65.085 6.5111
-6.5 65.09 6.6381
-6.25 65.08749 6.5746
-6 65.0825 6.4476
-5.75 65.08749 6.5746
-5.5 65.08749 6.5746
-5.25 65.095 6.7651
-5 65.09 6.6381
-4.75 65.085 6.5111
-4.5 65.0825 6.4476
-4.25 65.0775 6.3206
-4 65.0825 6.4476
-3.75 65.0825 6.4476
-3.5 65.08749 6.5746
-3.25 65.07 6.1301
-3 65.075 6.2571
-2.75 65.062 5.93965
-2.5 65.0595 5.8761
-2.25 65.0645 6.0031
-2 65.0595 5.8761
-1.75 65.052 5.68565
-1.5 65.052 5.68565
-1.25 65.02451 4.98715
-1 65.007 4.542665
-0.25 63.9425 -24.08395
0 63.94 -24.15525
0.25 63.94 -24.15525
0.5 63.9265 -24.5118
0.75 63.9215 -24.6544
1 63.9135 -24.86835
1.25 63.9 -25.2249
1.5 63.8895 -25.51015
1.75 63.8815 -25.72405
2 63.863 -26.2232
2.25 63.85 -26.57975
2.5 63.8365 -26.9363
2.75 63.805 -27.79205
3 63.797 -28.00595
3.25 63.7575 -29.0756
3.5 63.739 -29.57475
3.75 63.726 -29.9313
4 63.678 -31.2149
4.25 63.6545 -31.8567
-25.875 63.9135 -35.42295
-25.625 63.9265 -35.06635
-25.375 63.942 -34.6385
-25.125 63.95 -34.4246
-24.875 63.9575 -34.21065
-24.625 63.973 -33.7828
-24.375 63.981 -33.56885
-24.125 63.9835 -33.49755
-23.875 63.994 -33.2123
-23.625 63.999 -33.06965
-23.375 64.007 -32.85575
-23.125 64.012 -32.71315
-22.875 64.02 -32.4992
-22.625 64.0225 -32.4279
-22.375 64.033 -32.14265
-22.125 64.033 -32.14265
-21.875 64.0435 -31.8574
-21.625 64.04601 -31.7861
-21.375 64.051 -31.64345
-21.125 64.0565 -31.50085
-20.875 64.0565 -31.50085
-20.625 64.077 -30.93035
-20.375 64.085 -30.7164
-20.125 64.11349 -29.932
-19.875 64.13699 -29.2902
-19.625 64.1475 -29.00495
-19.375 64.163 -28.5771
-19.125 64.1735 -28.29185
-18.875 64.181 -28.0779
-18.625 64.189 -27.864
-18.375 64.1965 -27.65005
-18.125 64.2045 -27.4361
-17.875 64.215 -27.15085
-17.625 64.228 -26.79435
-17.375 64.2355 -26.5804
-17.125 64.2485 -26.22385
-16.875 64.2565 -26.0099
-16.625 64.2645 -25.79595
-16.375 64.272 -25.58205
-16.125 64.28001 -25.3681
-15.875 64.2875 -25.15415
-15.625 64.293 -25.01155
-15.375 64.298 -24.86895
-15.125 64.3035 -24.7263
-14.875 64.311 -24.51235
-14.625 64.3135 -24.44105
-14.375 64.319 -24.29845
-14.125 64.324 -24.1558
-13.875 64.3265 -24.0845
-13.625 64.332 -23.9419
-13.375 64.332 -23.9419
-13.125 64.3395 -23.72795
-12.875 64.3425 -23.65665
-12.625 64.345 -23.58535
-12.375 64.35 -23.4427
-12.125 64.3525 -23.3714
-11.875 64.3555 -23.3001
-11.625 64.358 -23.22875
-11.375 64.3605 -23.15745
-11.125 64.3605 -23.15745
-10.875 65.3705 4.478745
-10.625 65.368 4.415245
-10.375 65.368 4.415245
-10.125 65.3805 4.732735
-9.875 65.3905 4.98672
-9.625 65.3855 4.859725
-9.375 65.40051 5.2407
-9.125 65.403 5.3042
-8.875 65.40051 5.2407
-8.625 65.408 5.4312
-8.375 65.408 5.4312
-8.125 65.4155 5.6217
-7.875 65.4155 5.6217
-7.625 65.423 5.8122
-7.375 65.41299 5.5582
-7.125 65.4105 5.4947
-6.875 65.418 5.6852
-6.625 65.418 5.6852
-6.375 65.418 5.6852
-6.125 65.418 5.6852
-5.875 65.418 5.6852
-5.625 65.423 5.8122
-5.375 65.408 5.4312
-5.125 65.408 5.4312
-4.875 65.40051 5.2407
-4.625 65.4055 5.3677
-4.375 65.408 5.4312
-4.125 65.4055 5.3677
-3.875 65.40051 5.2407
-3.625 65.393 5.0502
-3.375 65.388 4.92322
-3.125 65.3755 4.60574
-2.875 65.37801 4.66923
-2.625 65.3855 4.859725
-2.375 65.383 4.796235
-2.125 64.3525 -23.3714
-1.875 64.3555 -23.3001
-1.625 64.358 -23.22875
-1.375 64.3525 -23.3714
-1.125 64.3525 -23.3714
-0.875 64.3475 -23.514
-0.625 64.3425 -23.65665
-0.375 64.337 -23.79925
-0.125 64.332 -23.9419
0.125 64.3295 -24.0132
0.375 64.3215 -24.22715
0.625 64.3085 -24.5837
0.875 64.306 -24.655
1.125 64.2955 -24.94025
1.375 64.285 -25.2255
1.625 64.272 -25.58205
1.875 64.259 -25.9386
2.125 64.246 -26.29515
2.375 64.23299 -26.6517
2.625 64.1995 -27.57875
2.875 64.1835 -28.0066
3.125 64.1655 -28.5058
3.375 64.132 -29.4328
3.625 64.1215 -29.71805
3.875 64.0825 -30.78775
4.125 64.04601 -31.7861
-25.75 64.2995 -35.5663
-25.5 64.315 -35.13845
-25.25 64.32 -34.99585
-25 64.3325 -34.63925
-24.75 64.34299 -34.354
-24.5 64.353 -34.06875
-24.25 64.361 -33.85485
-24 64.3685 -33.6409
-23.75 64.376 -33.42695
-23.5 64.3815 -33.28435
-23.25 64.389 -33.0704
-23 64.394 -32.9278
-22.75 64.4015 -32.71385
-22.5 64.407 -32.5712
-22.25 64.41199 -32.4286
-22 64.417 -32.28595
-21.75 64.4245 -32.07205
-21.5 64.43 -31.9294
-21.25 64.435 -31.7868
-21 64.43999 -31.64415
-20.75 64.445 -31.50155
-20.5 64.4505 -31.3589
-20.25 64.46799 -30.85975
-20 64.491 -30.2179
-19.75 64.509 -29.71875
-19.5 64.5345 -29.0056
-19.25 64.5425 -28.7917
-19 64.555 -28.4351
-18.75 64.5655 -28.14985
-18.5 64.573 -27.93595
-18.25 64.583 -27.6507
-18 64.591 -27.43675
-17.75 64.601 -27.1515
-17.5 64.6115 -26.86625
-17.25 64.62399 -26.5097
-17 64.6315 -26.29575
-16.75 64.6395 -26.0818
-16.5 64.6495 -25.79655
-16.25 64.6575 -25.58265
-16 64.665 -25.3687
-15.75 64.67 -25.2261
-15.5 64.6775 -25.01215
-15.25 64.683 -24.8695
-15 64.688 -24.7269
-14.75 64.69299 -24.58425
-14.5 64.69801 -24.44165
-14.25 64.7035 -24.299
-14 64.7085 -24.1564
-13.75 64.7135 -24.01375
-13.5 64.716 -23.94245
-13.25 64.7185 -23.87115
-13 64.7235 -23.72855
-12.75 64.7265 -23.6572
-12.5 64.729 -23.5859
-12.25 64.73399 -23.4433
-12 64.7365 -23.37195
-11.75 64.739 -23.30065
-11.5 64.744 -23.15805
-11.25 64.7465 -23.0867
-11 64.7495 -23.0154
-10.75 64.7545 -22.8728
-10.5 64.7545 -22.8728
-10.25 64.757 -22.80145
-10 64.757 -22.80145
-9.75 64.757 -22.80145
-9.5 64.7595 -22.73015
-9.25 64.7595 -22.73015
-9 64.762 -22.65885
-8.75 65.732 4.351335
-8.5 65.7275 4.224335
-8.25 65.7345 4.414825
-8 65.7345 4.414825
-7.75 65.7345 4.414825
-7.5 65.73949 4.54182
-7.25 65.747 4.73231
-7 65.752 4.859295
-6.75 65.73949 4.54182
-6.5 65.742 4.60532
-6.25 65.7445 4.668805
-6 65.742 4.60532
-5.75 65.742 4.60532
-5.5 65.732 4.351335
-5.25 65.737 4.478325
-5 65.7445 4.668805
-4.75 65.73949 4.54182
-4.5 64.7595 -22.73015
-4.25 64.757 -22.80145
-4 64.757 -22.80145
-3.75 64.757 -22.80145
-3.5 64.757 -22.80145
-3.25 64.757 -22.80145
-3 64.7545 -22.8728
-2.75 64.7545 -22.8728
-2.5 64.752 -22.9441
-2.25 64.7465 -23.0867
-2 64.744 -23.15805
-1.75 64.744 -23.15805
-1.5 64.7415 -23.22935
-1.25 64.739 -23.30065
-1 64.7315 -23.5146
-0.75 64.7265 -23.6572
-0.5 64.7235 -23.72855
-0.25 64.7185 -23.87115
0 64.7135 -24.01375
0.25 64.706 -24.2277
0.5 64.6955 -24.51295
0.75 64.688 -24.7269
1 64.683 -24.8695
1.25 64.6725 -25.15475
1.5 64.6575 -25.58265
1.75 64.647 -25.8679
2 64.637 -26.15315
2.25 64.62399 -26.5097
2.5 64.6085 -26.93755
2.75 64.5755 -27.8646
3 64.555 -28.4351
3.25 64.5245 -29.29085
3.5 64.5115 -29.64745
3.75 64.4705 -30.7884
4 64.4475 -31.43025
4.25 64.4195 -32.21465
-25.875 64.663 -36.35155
-25.625 64.6855 -35.70975
-25.375 64.701 -35.28185
-25.125 64.706 -35.1392
-24.875 64.7185 -34.78265
-24.625 64.72601 -34.5687
-24.375 64.73849 -34.21215
-24.125 64.746 -33.9982
-23.875 64.7535 -33.78425
-23.625 64.761 -33.57035
-23.375 64.766 -33.4277
-23.125 64.7735 -33.21375
-22.875 64.7785 -33.07115
-22.625 64.786 -32.8572
-22.375 64.7885 -32.7859
-22.125 64.7965 -32.57195
-21.875 64.804 -32.358
-21.625 64.80901 -32.2154
-21.375 64.8165 -32.00145
-21.125 64.819 -31.93015
-20.875 64.8265 -31.7162
-20.625 64.8315 -31.57355
-20.375 64.8365 -31.43095
-20.125 64.854 -30.93175
-19.875 64.8615 -30.7178
-19.625 64.889 -29.93335
-19.375 64.912 -29.29155
-19.125 64.9245 -28.93495
-18.875 64.942 -28.43575
-18.625 64.947 -28.29315
-18.375 64.9595 -27.9366
-18.125 64.972 -27.58
-17.875 64.977 -27.4374
-17.625 64.987 -27.15215
-17.375 64.997 -26.8669
-17.125 65.005 -26.65295
-16.875 65.0175 -26.2964
-16.625 65.025 -26.08245
-16.375 65.03249 -25.8685
-16.125 65.04 -25.65455
-15.875 65.0475 -25.4406
-15.625 65.05251 -25.298
-15.375 65.06 -25.08405
-15.125 65.0675 -24.8701
-14.875 65.0725 -24.7275
-14.625 65.0775 -24.58485
-14.375 65.0825 -24.44225
-14.125 65.08749 -24.2996
-13.875 65.0925 -24.157
-13.625 65.095 -24.08565
-13.375 65.1 -23.94305
-13.125 65.1025 -23.87175
-12.875 65.108 -23.7291
-12.625 65.1105 -23.6578
-12.375 65.113 -23.58645
-12.125 65.11549 -23.51515
-11.875 65.12051 -23.37255
-11.625 65.123 -23.3012
-11.375 65.1255 -23.2299
-11.125 65.1305 -23.0873
-10.875 65.133 -23.01595
-10.625 65.1355 -22.94465
-10.375 65.138 -22.87335
-10.125 65.1405 -22.80205
-9.875 65.1405 -22.80205
-9.625 65.1405 -22.80205
-9.375 65.143 -22.7307
-9.125 65.143 -22.7307
-8.875 65.1455 -22.6594
-8.625 65.143 -22.7307
-8.375 65.143 -22.7307
-8.125 65.143 -22.7307
-7.875 65.143 -22.7307
-7.625 65.1455 -22.6594
-7.375 65.1455 -22.6594
-7.125 65.1455 -22.6594
-6.875 65.148 -22.5881
-6.625 65.148 -22.5881
-6.375 65.1455 -22.6594
-6.125 65.1455 -22.6594
-5.875 65.148 -22.5881
-5.625 65.1455 -22.6594
-5.375 65.148 -22.5881
-5.125 65.148 -22.5881
-4.875 65.1455 -22.6594
-4.625 65.143 -22.7307
-4.375 65.1455 -22.6594
-4.125 65.143 -22.7307
-3.875 65.143 -22.7307
-3.625 65.1405 -22.80205
-3.375 65.1405 -22.80205
-3.125 65.138 -22.87335
-2.875 65.1355 -22.94465
-2.625 65.1355 -22.94465
-2.375 65.1305 -23.0873
-2.125 65.128 -23.1586
-1.875 65.128 -23.1586
-1.625 65.123 -23.3012
-1.375 65.12051 -23.37255
-1.125 65.11549 -23.51515
-0.875 65.108 -23.7291
-0.625 65.1055 -23.8004
-0.375 65.1 -23.94305
-0.125 65.0925 -24.157
0.125 65.08749 -24.2996
0.375 65.0775 -24.58485
0.625 65.0725 -24.7275
0.875 65.06499 -24.94145
1.125 65.0575 -25.15535
1.375 65.0425 -25.58325
1.625 65.035 -25.7972
1.875 65.0275 -26.01115
2.125 65.0175 -26.2964
2.375 65.0025 -26.72425
2.625 64.9745 -27.5087
2.875 64.947 -28.29315
3.125 64.9295 -28.79235
3.375 64.9045 -29.50545
3.625 64.88651 -30.00465
3.875 64.8515 -31.00305
4.125 64.824 -31.7875
-26 65.035 -36.92285
-25.75 65.055 -36.35235
-25.5 65.0745 -35.7818
-25.25 65.092 -35.2826
-25 65.0995 -35.06865
-24.75 65.10651 -34.85475
-24.5 65.1165 -34.56945
-24.25 65.1265 -34.2842
-24 65.134 -34.07025
-23.75 65.1415 -33.8563
-23.5 65.14851 -33.6424
-23.25 65.1535 -33.49975
-23 65.161 -33.2858
-22.75 65.166 -33.1432
-22.5 65.17101 -33.00055
-22.25 65.176 -32.8579
-22 65.183 -32.644
-21.75 65.188 -32.50135
-21.5 65.193 -32.3587
-21.25 65.2005 -32.1448
-21 65.208 -31.93085
-20.75 65.21301 -31.7882
-20.5 65.218 -31.6456
-20.25 65.2225 -31.50295
-20 65.23499 -31.1464
-19.75 65.2475 -30.7898
-19.5 65.277 -29.93405
-19.25 65.297 -29.3635
-19 65.3115 -28.93565
-18.75 65.324 -28.57905
-18.5 65.3365 -28.2225
-18.25 65.3435 -28.00855
-18 65.356 -27.65195
-17.75 65.36349 -27.43805
-17.5 65.371 -27.2241
-17.25 65.3805 -26.93885
-17 65.3905 -26.65355
-16.75 65.40051 -26.3683
-16.5 65.4105 -26.08305
-16.25 65.418 -25.8691
-16 65.425 -25.65515
-15.75 65.4325 -25.4412
-15.5 65.44 -25.2273
-15.25 65.445 -25.08465
-15 65.4525 -24.8707
-14.75 65.45499 -24.7994
-14.5 65.457 -24.7281
-14.25 65.462 -24.58545
-14 65.46951 -24.3715
-13.75 65.472 -24.3002
-13.5 65.477 -24.15755
-13.25 65.4795 -24.08625
-13 65.4845 -23.9436
-12.75 65.487 -23.8723
-12.5 65.492 -23.7297
-12.25 65.4945 -23.65835
-12 65.497 -23.58705
-11.75 65.5015 -23.4444
-11.5 65.504 -23.3731
-11.25 65.509 -23.23045
-11 65.51151 -23.15915
-10.75 65.514 -23.08785
-10.5 65.5165 -23.01655
-10.25 65.519 -22.9452
-10 65.5215 -22.8739
-9.75 65.5215 -22.8739
-9.5 65.5215 -22.8739
-9.25 65.52399 -22.8026
-9 65.52399 -22.8026
-8.75 65.5265 -22.73125
-8.5 65.5265 -22.73125
-8.25 65.52399 -22.8026
-8 65.52399 -22.8026
-7.75 65.5265 -22.73125
-7.5 65.529 -22.65995
-7.25 65.5265 -22.73125
-7 65.529 -22.65995
-6.75 65.529 -22.65995
-6.5 65.5265 -22.73125
-6.25 65.5265 -22.73125
-6 65.529 -22.65995
-5.75 65.529 -22.65995
-5.5 65.529 -22.65995
-5.25 65.529 -22.65995
-5 65.5265 -22.73125
-4.75 65.52399 -22.8026
-4.5 65.5265 -22.73125
-4.25 65.52399 -22.8026
-4 65.52399 -22.8026
-3.75 65.52399 -22.8026
-3.5 65.5215 -22.8739
-3.25 65.5165 -23.01655
-3 65.514 -23.08785
-2.75 65.5165 -23.01655
-2.5 65.51151 -23.15915
-2.25 65.509 -23.23045
-2 65.5065 -23.3018
-1.75 65.5015 -23.4444
-1.5 65.499 -23.51575
-1.25 65.497 -23.58705
-1 65.492 -23.7297
-0.75 65.4845 -23.9436
-0.5 65.48199 -24.01495
-0.25 65.4745 -24.2289
0 65.467 -24.4428
0.25 65.462 -24.58545
0.5 65.457 -24.7281
0.75 65.45 -24.942
1 65.445 -25.08465
1.25 65.43 -25.51255
1.5 65.42 -25.7978
1.75 65.4155 -25.9404
2 65.408 -26.15435
2.25 65.3955 -26.51095
2.5 65.3685 -27.2954
2.75 65.339 -28.15115
3 65.319 -28.7217
3.25 65.29951 -29.2922
3.5 65.2845 -29.7201
3.75 65.2475 -30.7898
4 65.2205 -31.57425
4.25 65.198 -32.2161
-26.125 65.41 -37.42285
-25.875 65.4245 -36.99495
-25.625 65.4465 -36.3531
-25.375 65.4685 -35.7113
-25.125 65.4805 -35.3547
-24.875 65.49 -35.06945
-24.625 65.49751 -34.8555
-24.375 65.505 -34.64155
-24.125 65.5145 -34.3563
-23.875 65.522 -34.14235
-23.625 65.529 -33.9284
-23.375 65.534 -33.78575
-23.125 65.541 -33.5718
-22.875 65.5485 -33.35785
-22.625 65.5535 -33.21525
-22.375 65.558 -33.0726
-22.125 65.5655 -32.85865
-21.875 65.568 -32.78735
-21.625 65.5725 -32.6447
-21.375 65.58 -32.43075
-21.125 65.585 -32.28815
-20.875 65.592 -32.0742
-20.625 65.5995 -31.86025
-20.375 65.604 -31.7176
-20.125 65.609 -31.57495
-19.875 65.621 -31.2184
-19.625 65.631 -30.93315
-19.375 65.655 -30.21995
-19.125 65.682 -29.4355
-18.875 65.694 -29.07895
-18.625 65.7085 -28.65105
-18.375 65.718 -28.36575
-18.125 65.728 -28.0805
-17.875 65.7375 -27.79525
-17.625 65.7475 -27.51
-17.375 65.7545 -27.29605
-17.125 65.762 -27.0821
-16.875 65.774 -26.7255
-16.625 65.7835 -26.44025
-16.375 65.791 -26.2263
-16.125 65.80051 -25.94105
-15.875 65.808 -25.7271
-15.625 65.815 -25.51315
-15.375 65.82 -25.3705
-15.125 65.8275 -25.15655
-14.875 65.83199 -25.01395
-14.625 65.8345 -24.9426
-14.375 65.83701 -24.8713
-14.125 65.8445 -24.65735
-13.875 65.8465 -24.58605
-13.625 65.8515 -24.4434
-13.375 65.854 -24.3721
-13.125 65.859 -24.22945
-12.875 65.86349 -24.08685
-12.625 65.866 -24.0155
-12.375 65.8685 -23.9442
-12.125 65.8735 -23.80155
-11.875 65.8785 -23.65895
-11.625 65.8805 -23.5876
-11.375 65.883 -23.5163
-11.125 65.888 -23.37365
-10.875 65.8905 -23.30235
-10.625 65.89301 -23.23105
-10.375 65.89301 -23.23105
-10.125 65.8975 -23.0884
-9.875 65.9 -23.0171
-9.625 65.9 -23.0171
-9.375 65.9025 -22.9458
-9.125 65.9025 -22.9458
-8.875 65.9025 -22.9458
-8.625 65.905 -22.87445
-8.375 65.905 -22.87445
-8.125 65.9025 -22.9458
-7.875 65.905 -22.87445
-7.625 65.9075 -22.80315
-7.375 65.9075 -22.80315
-7.125 65.9075 -22.80315
-6.875 65.9075 -22.80315
-6.625 65.9075 -22.80315
-6.375 65.905 -22.87445
-6.125 65.9075 -22.80315
-5.875 65.9075 -22.80315
-5.625 65.905 -22.87445
-5.375 65.905 -22.87445
-5.125 65.905 -22.87445
-4.875 65.9025 -22.9458
-4.625 65.9025 -22.9458
-4.375 65.9025 -22.9458
-4.125 65.9 -23.0171
-3.875 65.9 -23.0171
-3.625 65.9 -23.0171
-3.375 65.8955 -23.15975
-3.125 65.89301 -23.23105
-2.875 65.8905 -23.30235
-2.625 65.888 -23.37365
-2.375 65.888 -23.37365
-2.125 65.8855 -23.445
-1.875 65.8805 -23.5876
-1.625 65.876 -23.73025
-1.375 65.8735 -23.80155
-1.125 65.871 -23.8729
-0.875 65.86349 -24.08685
-0.625 65.8615 -24.15815
-0.375 65.854 -24.3721
-0.125 65.849 -24.5147
0.125 65.8445 -24.65735
0.375 65.8395 -24.8
0.625 65.8345 -24.9426
0.875 65.83 -25.08525
1.125 65.8175 -25.44185
1.375 65.8055 -25.7984
1.625 65.80051 -25.94105
1.875 65.7935 -26.155
2.125 65.7835 -26.44025
2.375 65.762 -27.0821
